# .PCD v0.7 - Point Cloud Data file format
VERSION 0.7
FIELDS x y z intensity
SIZE 4 4 4 4
TYPE F F F F
COUNT 1 1 1 1
WIDTH 1335
HEIGHT 1
VIEWPOINT 0 0 0 1 0 0 0
POINTS 1335
DATA ascii
-18.77742 63.243118 1.9711108 59
-18.954422 63.232883 2.4264531 60
-5.3235626 47.993324 2.0592356 60
-4.9616089 47.959053 2.6770492 62
-5.2370148 47.829544 2.3001442 61
-5.0058594 47.816643 2.3045051 61
-3.9101562 33.427223 -1.3280339 49
-3.664093 33.49646 -1.3233316 49
-3.4452667 33.575874 -1.3208795 49
-4.9888458 33.093269 -1.346559 49
-4.6143188 33.213882 -1.3394527 49
-4.2818451 33.324524 -1.3340247 49
-7.8909454 32.971748 -1.4412823 49
-7.6744537 32.930237 -1.4315786 49
-7.2799835 32.896072 -1.4153025 49
-6.9913788 32.862495 -1.4040322 49
-6.6691132 32.828026 -1.3905942 49
-6.3782349 32.765999 -1.3783219 49
-6.1692505 32.794159 -1.3721368 49
-5.8706055 32.845215 -1.364146 49
-5.4636993 32.967796 -1.3559704 49
-5.2460175 33.026367 -1.350924 49
-5.1142426 30.087303 -1.422694 48
-4.8656921 30.206062 -1.4202404 48
-4.6098633 30.290016 -1.4160411 48
-10.103714 30.042717 -0.48963213 53
-10.156326 30.080833 0.2534647 56
-7.5471039 29.896347 -1.5034032 48
-7.2984009 29.903473 -1.4940343 48
-7.022995 29.897163 -1.4830246 48
-6.7940826 29.873505 -1.4730134 48
-6.4643402 29.894188 -1.4615531 48
-6.1148071 29.931747 -1.4506652 48
-5.8708649 29.939186 -1.4423909 48
-5.533783 29.969185 -1.4319985 48
-5.3050842 30.057175 -1.4275641 48
5.2942505 28.021614 0.25200105 54.666668
5.5874939 28.009399 0.22526956 54.5
5.8322144 28.01844 0.22895241 54.5
6.032959 27.99427 0.13942266 54
5.3327026 28.109795 0.48034334 56
5.6067963 28.111282 0.48495531 56
5.8787384 28.100479 0.48929262 56
6.0633392 28.10556 0.49242735 56
-8.5135803 27.019165 -1.2265944 49
-8.5269012 26.983101 -0.89150071 51
-9.7172394 26.391304 0.77072167 59
-9.7280121 26.408722 1.243361 61
-3.0630646 26.18306 -1.4740262 47
-2.7755737 26.302307 -1.472425 47
-2.5190887 26.40123 -1.4710915 47
-9.7779388 26.301506 0.76669049 59
-9.7730103 26.354324 1.0961487 60
-3.7134399 25.882942 -1.4768548 47
-3.4094238 26.025818 -1.4752645 47
-3.2021027 26.120361 -1.4743249 47
-6.386322 25.588524 -1.5610757 47
-6.0606232 25.610809 -1.5481389 47
-5.7852325 25.613739 -1.5375919 47
-5.4687042 25.618393 -1.5246401 47
-5.157486 25.642647 -1.5144508 47
-4.8410339 25.632561 -1.5012078 47
-4.6748657 25.637657 -1.4959462 47
-4.3260651 25.672516 -1.4849908 47
-3.9880066 25.769554 -1.4793503 47
-6.961731 25.525635 -1.5821931 47
-6.6441956 25.547356 -1.5696888 47
-10.039444 24.378098 -0.42587185 53
-9.8530121 24.360329 -0.41904068 53
-9.3991547 24.44902 -0.40286708 53
-10.057968 24.420158 -0.18479228 54.5
-9.8799744 24.358788 -0.092923403 55
-9.4060822 24.372833 -0.19071317 54.333332
-9.1576385 24.344803 -0.23945165 54
-10.080872 24.323235 0.056909323 56
-9.7194519 24.313759 0.067634106 56
-9.4073486 24.451157 0.078111649 56
-9.6950684 24.295044 0.54389238 58
-9.4013977 24.423187 0.43361855 57.25
-9.6488953 24.397141 0.75464654 59.333332
-9.4263458 24.497131 0.78287172 59.5
-9.7339783 24.498055 1.1567693 61
-9.438385 24.540619 1.1637263 61
-9.7613373 24.488937 1.355557 62
-10.182831 24.290329 -0.4305625 53
-10.10228 24.140167 -0.10029125 55
-9.6723328 24.240875 -0.17104888 54.5
-9.5458984 24.302261 -0.081718206 55
-9.835022 24.267944 0.06431818 56
-9.5798492 24.297562 0.071537971 56
-9.7585907 24.270348 0.38144946 57
-9.4996338 24.287453 0.54822302 58
-9.6562195 24.258148 0.83226085 60
-11.921356 23.737549 -0.0054910183 56
-3.9370117 23.482315 -1.4904456 46
-3.7371979 23.540855 -1.4872608 46
-11.7724 23.670578 -0.4867909 53
-11.821945 23.637604 -0.24567366 54.5
-11.975906 23.661583 -0.0079734325 56
-12.041168 23.451111 1.0759213 61
-12.130539 23.37899 1.2709684 62
-11.986847 23.462975 1.2765579 62
-11.956238 23.367867 1.3958418 63
-5.8106842 23.405342 -1.5608914 46
-5.5096893 23.411461 -1.5486264 46
-5.1531219 23.422844 -1.533967 46
-4.844635 23.424759 -1.5219309 46
-4.6544037 23.434502 -1.5150223 46
-4.3289795 23.434647 -1.5021937 46
-12.16391 23.313293 1.0010571 60.5
-11.826691 23.331345 1.2718258 62
-12.157852 23.351669 1.3936415 63
1.7141113 22.848648 0.10250187 54
1.8307343 22.961533 0.10365987 54
1.7044067 22.891106 0.29330397 55.333332
1.7394104 22.913803 0.49844718 57
-2.3678589 22.288338 -1.495682 45
-2.2158356 22.308136 -1.4922633 45
-1.870575 22.42659 -1.4909916 45
2.5961304 22.237747 0.12119508 54
3.4561005 22.336998 0.13445163 54
2.5714569 22.292152 0.35159016 55.666668
2.8742828 22.234871 0.39997935 56
3.2484283 22.226738 0.36309266 55.666668
3.4610291 22.373604 0.27951431 55
2.5305328 22.308517 0.50668502 57
2.8220978 22.230598 0.61337638 57.666668
3.1803436 22.250183 0.5949707 57.5
-3.1154327 22.012573 -1.5002005 45
-2.7150726 22.168312 -1.4978826 45
2.8373108 22.116791 0.1261704 54
3.0991516 22.115707 0.13003683 54
2.8615417 22.136833 0.26936364 55
3.1768341 22.135414 0.27470493 55
3.0053253 22.179413 0.51410413 57
-6.0905457 21.74453 -1.6051331 45
-5.8457947 21.771553 -1.5953014 45
-5.5280304 21.792023 -1.5817389 45
-5.2095337 21.805595 -1.568712 45
-4.9168091 21.815872 -1.5561562 45
-4.6001434 21.823776 -1.5435109 45
-4.2727814 21.826668 -1.5302184 45
-3.9603882 21.836792 -1.5188506 45
-3.6907349 21.850098 -1.5092721 45
-3.4141083 21.910301 -1.5032752 45
-8.35672 21.089691 -1.4009957 47
-8.3443604 21.087517 -1.266712 48
-8.4198303 21.194878 -0.72759581 51
-8.3480225 21.153755 -0.93651628 49.5
5.8650055 20.794548 -0.31953549 51
5.8283691 20.703476 0.31221652 55
5.8402557 20.693687 0.69144154 58
5.8500214 20.708313 -0.20555019 52
5.8400574 20.644691 -0.010167599 53.5
5.8377228 20.668571 0.43738747 56
5.8768463 20.43129 0.61521864 57.5
5.9235229 20.27021 -0.25011516 51.5
5.9380188 20.24118 0.02496767 53.75
5.921402 20.225998 0.37388253 55.5
5.9331512 20.245499 0.54089022 57
5.9874268 20.05619 -0.60840344 49.5
5.9712982 20.090271 -0.24588013 51.5
6.0227814 19.871925 -0.23980141 51.5
5.9926758 19.953224 -0.01999855 53.333332
5.9670715 20.008888 0.39322042 55.666668
6.0087585 19.823479 0.31275129 55
5.956131 20.001862 0.63343906 57.666668
6.0105133 19.830414 0.53718138 57
5.9538574 19.803749 1.0264699 60
5.9938507 19.871193 1.1716118 61
6.0591125 19.638237 -0.23429346 51.5
6.0626068 19.632515 0.023375034 53.666668
6.0692596 19.60833 0.37266779 55.5
6.1200409 19.38427 -0.21039391 51.666668
6.0838165 19.500061 -0.051324844 53
6.1118469 19.366486 0.39164209 55.666668
6.1065063 19.357811 0.6249218 57.666668
6.1188049 19.242638 0.94788766 59.333332
6.1108398 19.286652 1.1492839 61
-5.155838 18.995293 -1.616873 44
-4.9516144 19.029686 -1.6092355 44
-4.7522278 19.038719 -1.6001475 44
-4.5332947 19.052582 -1.5908382 44
-4.2699738 19.073158 -1.5800278 44
-3.9593048 19.088516 -1.5674779 44
-3.6618347 19.084656 -1.5541739 44
-3.4468689 19.100128 -1.5466552 44
-3.1163025 19.120354 -1.5355117 44
-2.7507172 19.194382 -1.5281591 44
-2.5716095 19.242668 -1.524965 44
6.1799164 19.026016 0.012773275 53.5
6.1844025 19.028358 0.31291962 55
6.1839294 19.004745 0.53671694 57
-5.6871643 18.934723 -1.6391218 44
-5.5541077 18.924942 -1.6313219 44
-5.3449554 18.943695 -1.6217268 44
6.2755737 18.668785 -0.49030089 50
5.1029968 18.687424 -0.26577759 51
4.5113373 18.677277 0.057389259 54
4.6330566 18.675117 0.058943033 54
5.0645905 18.61467 -0.16353822 52
6.2540894 18.766418 -0.04358387 53
4.5375519 18.718483 0.29245734 55
6.2204895 18.84565 0.31331301 55
4.578125 18.790497 0.40523577 56
6.2618103 18.70015 0.54118633 57
6.464798 18.597908 0.54643226 57
6.434967 18.596107 1.1290023 61
6.6016846 18.607704 1.1336324 61
6.3208618 18.442123 -0.25595045 51
4.9817505 18.595261 -0.044192791 53
6.294281 18.522392 0.0015895367 53.333332
6.339447 18.352135 -0.037785292 53
4.3782501 18.568947 0.29020548 55
6.2826233 18.50898 0.31330752 55
4.3281555 18.529404 0.48474693 56.833332
6.5222321 18.539391 0.53752589 57
6.2286224 18.56427 0.88235211 59.5
6.479599 18.521683 0.88600874 59.5
6.5138092 18.553192 1.2283909 62
6.6158142 18.564468 1.2314513 62
6.697403 18.510666 1.4691517 63
-4.1632996 18.063599 -1.5966311 43
-3.9381866 18.071892 -1.5868649 43
-3.6904144 18.081963 -1.576241 43
-3.3978729 18.095772 -1.5648537 43
-3.0903015 18.102974 -1.5529716 43
-2.8312988 18.131546 -1.5453877 43
-2.5515289 18.181473 -1.5387189 43
-2.2427521 18.274025 -1.5361445 43
6.3947449 18.137077 -0.32223439 50.666668
4.4018097 18.087715 -0.079289198 52.666668
6.3832703 18.165451 -0.062289476 52.75
6.3558807 18.219154 0.31354976 55
-5.2333679 17.936516 -1.640214 43
-4.9689026 17.981163 -1.6298361 43
-4.6457062 18.029358 -1.6175468 43
-4.3496246 18.049614 -1.6042678 43
6.4526825 17.837013 -0.24058938 51
6.4282227 17.90464 0.010083675 53.333332
6.4225311 17.882675 0.31364822 55
-1.7670593 17.500145 -1.5389488 42
6.5008087 17.677277 -0.62748718 48.5
6.5068207 17.684013 -0.34592986 50.5
6.5148621 17.533638 -0.023190022 53
6.5002441 17.548065 0.31329536 55
6.5214844 17.494499 0.5262711 57
6.4883423 17.401939 0.75241375 59
-4.5365295 17.172928 -1.6265097 42
-4.3045502 17.192322 -1.6164207 42
-4.0265961 17.211975 -1.6043673 42
-3.6504059 17.228226 -1.5878801 42
-3.3230896 17.24913 -1.5749371 42
-3.1734467 17.250183 -1.5684645 42
-2.8335114 17.258293 -1.5551567 42
-2.5397339 17.285667 -1.5460534 42
-2.2322388 17.357559 -1.5416343 42
-1.9487915 17.442574 -1.5394812 42
6.5651245 17.313133 -0.2271955 51
6.6268616 17.224045 -0.43822646 50
6.5741119 17.258766 -0.072969913 52.5
6.5652008 17.261566 0.12374306 54.333332
6.5679321 17.217094 0.52580476 57
6.5349426 17.160522 0.81335568 59.333332
-5.223938 17.060066 -1.6540453 42
-4.9704132 17.091484 -1.6427147 42
-4.7495575 17.1315 -1.6342194 42
6.6356964 17.069252 -0.60114336 48.5
6.6463318 16.977631 -0.38657784 50.5
6.6089172 17.039246 -0.012243271 53
6.6444244 16.946487 -0.086132288 52.333332
6.6460419 16.934715 0.14393187 54.5
6.6341095 16.932381 0.52075744 57
6.5427094 17.014832 0.94126081 60
6.5978546 16.976295 0.74355769 59
-7.4080505 16.607803 -1.0002811 48
6.7346344 16.634186 -0.6330452 48
-7.4363251 16.629807 -0.67146254 50.5
6.7318268 16.628952 -0.42778659 50
6.7040253 16.623886 -0.061773539 52.5
6.7142792 16.629333 0.093905926 54
-7.5853729 16.523216 0.12702608 56.5
-7.4651337 16.571205 0.17721629 57
6.6976471 16.628983 0.51752114 57
6.6712036 16.545975 0.79882431 59.333332
6.7856903 16.365051 -0.62110162 48
6.7805023 16.371445 -0.41885591 50
6.7682495 16.361168 -0.057054281 52.5
6.7625427 16.409302 0.16485882 54.666668
-7.646347 16.400597 0.24071193 57.5
6.7723389 16.328354 0.47485185 56.599998
-7.667572 16.346725 0.47059846 59.333332
6.6655731 16.427109 0.9229691 60
6.83992 16.100647 -0.71051383 48
6.8431396 16.096832 -0.40967488 50
6.8237305 16.085701 -0.10088658 52.333332
6.8186035 16.097115 0.13271284 54.333332
6.8029327 16.103767 0.53914452 57.25
6.9020386 15.895851 0.61822653 58
7.3496246 15.991882 0.62645125 58
6.8098602 16.030075 0.75983763 59.333332
7.0317383 15.953468 0.83453369 60
7.3280487 15.930038 0.79652429 59.599998
7.5228119 15.908203 0.84364414 60
6.8521729 15.903679 1.0272121 61
7.0313263 15.907669 1.1621966 62.200001
7.3851471 15.914963 1.0638173 61.25
7.4203339 15.916412 1.2620184 63
6.8777008 15.828827 -0.30864859 51
6.8854218 15.813057 -0.092954159 52.5
6.8892212 15.784164 0.17952776 54.75
6.900116 15.871269 0.49947071 57
7.1022949 15.875206 0.56149483 57.5
7.2835388 15.883217 0.6235292 58
7.0098724 15.867226 0.72370505 59
7.4321594 15.841881 0.7304759 59
6.9618683 15.840851 1.114532 62
7.4715729 15.841408 1.1286068 62
-3.4013519 15.372475 -1.6155622 41
-3.1151886 15.380356 -1.6026993 41
-2.8027039 15.395103 -1.5896628 41
-2.5190125 15.401718 -1.5776458 41
-2.2087097 15.439323 -1.5690863 41
-1.9499359 15.480644 -1.5635691 41
-1.6560364 15.551964 -1.5608914 41
-1.3637085 15.634537 -1.560015 41
-4.567337 15.214523 -1.663964 41
-4.315918 15.263817 -1.6537883 41
-4.0075684 15.31778 -1.6419938 41
-3.723053 15.352142 -1.6302176 41
-1.2490387 15.07058 -1.5624938 40
-3.3957672 14.808968 -1.6231463 40
-3.0960236 14.842628 -1.6111212 40
-2.8336334 14.853966 -1.6000073 40
-2.4899445 14.863983 -1.5853064 40
-2.1898651 14.878731 -1.574374 40
-1.9004059 14.918159 -1.567441 40
-1.5953674 14.985268 -1.5639234 40
-1.3420715 15.0466 -1.5621593 40
15.547668 14.782173 0.70735598 58
15.589615 14.723267 0.97255564 59
-0.65751648 14.490715 -1.5813425 39
-0.51490784 14.491646 -1.5781102 39
2.8605652 14.675316 -1.0489836 44
2.8448029 14.631989 -0.5163188 49
15.762894 14.445778 0.18274665 54
16.390823 14.589622 0.17880225 54
15.692001 14.497688 0.40573359 55.666668
16.363281 14.564461 0.38555765 55.5
15.566544 14.521774 0.62874031 57.5
15.66272 14.420349 0.62736702 57.5
16.308914 14.513733 0.63444901 57.5
16.667938 14.551506 0.61299372 57.333332
15.679092 14.553169 0.96899557 59
16.696136 14.590004 0.920398 58.5
15.662033 14.477898 1.2128899 61
16.630859 14.529961 1.2428102 61
15.620193 14.466789 1.4793375 62
16.657394 14.53289 1.5640125 62.400002
-2.0613251 14.173409 -1.5907233 39
-1.8765259 14.190819 -1.5853486 39
-1.5768585 14.246407 -1.5805409 39
-1.2667694 14.319603 -1.5789809 39
-1.065979 14.367172 -1.5783536 39
-0.85372925 14.423508 -1.5789731 39
14.336761 14.193802 -1.1607122 45.666668
14.838409 14.222069 -1.2120218 45.5
2.9563446 14.140602 -1.0030973 44
14.320145 14.18885 -0.86942697 47
14.849365 14.230522 -0.89719748 47
14.867828 14.254288 -0.66019392 49
2.9470978 14.129089 -0.48928213 49
15.741974 14.384689 -0.19694948 52
14.339905 14.11216 0.072482586 54
15.700195 14.405098 -0.062086105 53
14.310303 14.134537 0.39997983 55.666668
7.1802216 14.291351 0.59105539 58
7.2422028 14.305771 0.48277187 57
15.729279 14.37986 0.55418444 57
7.1747131 14.28566 0.68682623 59
7.2329865 14.283867 0.7870965 60
7.2210388 14.275856 0.96971869 61
15.687164 14.348831 1.5760472 63
-4.4646149 13.905548 -1.6895487 39
-4.2767334 13.935989 -1.6809382 39
-4.0831757 13.986588 -1.6743405 39
-3.7600403 14.043861 -1.6612687 39
-3.3420258 14.100914 -1.6439476 39
-3.0392609 14.125504 -1.6305492 39
-2.786911 14.138588 -1.6196415 39
-2.475708 14.147263 -1.6058967 39
-2.2468414 14.156487 -1.5968516 39
-0.34501648 13.94165 -1.5685425 39
13.721191 13.967239 -1.1383281 45.5
14.2621 14.137596 -1.2403445 45
2.970459 14.093781 -1.0703499 43
13.614731 13.935783 -0.90928149 46.666668
13.521164 13.960655 -0.60392356 49
13.752869 13.981491 -0.64665747 48.666668
13.882309 14.073006 -0.49199414 50
3.0211792 13.853874 -0.47553182 49
13.833008 14.009598 -0.2592485 51
14.313293 14.088005 -0.16604233 52
7.3197632 13.837822 -0.1487546 52
13.079514 13.83075 0.0021426678 53.25
13.688828 13.946526 -0.034696341 53
14.251373 14.09201 -0.0021157265 53.333332
7.289505 13.925858 0.13547254 54.200001
13.083282 13.835602 0.32036757 55
13.702255 13.94194 0.32029247 55
13.845154 13.996094 0.32034397 55
7.2737427 13.943512 0.45716572 57
13.073288 13.840988 0.51222014 56.75
13.663666 13.951355 0.5452702 57
13.85527 13.946014 0.54678535 57
14.251312 14.065788 0.60799503 57.5
7.2648315 13.93631 0.71221042 59.333332
13.893524 13.982933 0.91439962 59
7.2675476 13.956833 1.0683298 62.200001
11.69313 13.578201 -1.2283516 43.5
3.0940857 13.557175 -1.0684538 42.5
11.675842 13.578865 -0.98552036 45.75
11.748093 13.589653 -0.95960426 46
3.0735016 13.617065 -0.9583869 44
11.665863 13.566734 -0.59800053 48.333332
3.0475159 13.662727 -0.54516768 48
7.3796539 13.609077 -0.41560745 49.5
11.575226 13.562393 -0.42065883 50
7.3409271 13.695992 -0.21585584 51.333332
11.610641 13.556488 -0.10422778 52
11.747147 13.541023 -0.0034749508 53
12.026718 13.597145 -0.11976552 52
12.501556 13.708054 -0.016321421 53
13.00412 13.807739 -0.080022812 52.5
7.3527069 13.650093 0.11956 54
11.35434 13.502686 0.20402765 55
11.59314 13.529411 0.15146661 54.5
11.885345 13.603325 0.14943886 54.5
12.278152 13.671631 0.31934643 55
12.446411 13.696823 0.2056756 54.5
7.341156 13.661537 0.45420909 57
11.348755 13.527061 0.42085314 56
11.602859 13.542809 0.52888775 57
11.859238 13.574127 0.52288508 57
12.242783 13.664085 0.53016996 57
12.468369 13.754761 0.42817688 56
12.970566 13.785973 0.59105921 57.5
7.3443146 13.625153 0.72108388 59.5
11.66716 13.502007 0.74311328 59
11.859802 13.549049 0.74675846 59
12.192551 13.617157 0.75408435 59
12.991394 13.777985 0.77138329 59
7.3525085 13.587189 1.0351071 62
11.645645 13.54348 -1.1734457 44
3.142746 13.261551 -1.1744971 42
11.621445 13.532639 -0.84306645 47
3.1561279 13.28627 -0.99727941 43
7.4119568 13.348747 -0.72601843 46.5
10.522964 13.269684 -0.67995524 48
10.990768 13.416191 -0.60315275 48
3.1396484 13.275925 -0.5236125 48
7.4229279 13.346779 -0.53355169 48.599998
10.576172 13.335655 -0.39014149 50
11.046082 13.436295 -0.40550542 50
1.3164978 13.251991 -0.41830969 49.5
7.432785 13.344254 -0.21568251 51.200001
10.682373 13.354309 -0.14091134 52
10.942307 13.370636 -0.028894663 52.666668
11.248367 13.436081 -0.051577568 52.5
11.594025 13.495323 -0.11180735 52
7.4145508 13.347359 0.10642171 53.833332
10.045868 13.217308 0.24331546 55.333332
10.498337 13.325012 0.20695949 55
10.79425 13.390808 0.20542002 55
10.919952 13.383652 0.13828063 54.333332
11.307495 13.463867 0.10169792 54
11.48262 13.495651 0.10047364 54
7.3952789 13.386787 0.48033357 57.200001
10.170563 13.199203 0.49509692 57
10.445572 13.290619 0.50928044 57
10.750198 13.353142 0.51249409 57
10.908173 13.373779 0.51465869 57
11.467758 13.470352 0.57069278 57.5
7.4191589 13.29982 0.68563604 59.200001
10.19249 13.267075 0.81698966 60
10.406876 13.240868 0.71567154 59
10.702606 13.306366 0.7221272 59
10.867645 13.336838 0.72564864 59
11.436386 13.451477 0.73753786 59
7.4029999 13.337555 1.0028489 61.75
10.238922 13.251472 1.009629 61
-2.0807648 12.966621 -1.5910392 38
-1.8628693 12.98793 -1.584048 38
-1.5624237 13.01535 -1.57568 38
-1.2617188 13.073029 -1.5722327 38
-0.98158264 13.133621 -1.5706358 38
7.463562 13.168289 -1.3754487 41
9.5563812 13.075226 -1.2068434 43
3.2077026 13.011673 -1.1491175 42
7.4747467 13.147369 -1.1150427 43
9.2363739 13.032234 -1.0639906 44
9.5080414 13.109764 -1.0633307 44.333332
9.7021027 13.158981 -0.9503305 45
3.1986389 13.041801 -0.86963367 44.5
7.4810181 13.129547 -0.76349425 46
9.1464081 13.006042 -0.69473791 47.25
9.4749756 13.086655 -0.7346766 47
9.8261414 13.178368 -0.78642273 46.666668
9.9260101 13.178505 -0.70621467 47.5
11.605972 12.973274 -0.61096239 48
3.1826782 13.055046 -0.55231428 47.5
7.4664307 13.114853 -0.55499172 48.25
7.5213928 12.926773 -0.48330402 49
9.0139008 12.995926 -0.43696618 49
9.1949005 13.05349 -0.39169407 49.5
9.4514313 13.086418 -0.45092201 49
9.7740631 13.174995 -0.427881 49.333332
7.4823761 13.08831 -0.20240474 51.333332
7.5218506 13.079094 -0.30926418 50
9.1177521 13.038063 -0.20871067 51.5
9.7267609 13.182121 -0.22201252 51.5
10.005692 13.181793 0.018642902 53
7.4659119 13.126038 0.12256479 54
8.6056824 12.919861 0.20955205 55
8.8483887 12.944504 0.119241 54
9.1273804 13.005997 0.11762547 54
9.4401703 13.069794 0.11614299 54
9.6999359 13.135696 0.19809008 54.857143
9.9444122 13.180588 0.21285105 55
7.458847 13.136658 0.32770824 56.25
7.5159149 13.051628 0.39274979 57
8.7393036 12.905853 0.44706583 57
9.1183472 12.982475 0.46143246 57
9.4564819 13.050713 0.49596214 57.200001
9.7948608 13.122032 0.5582993 57.599998
10.027649 13.165672 0.55049372 57.5
8.9883423 12.940727 0.68354702 59
9.1255798 12.96096 0.68681502 59
9.4451447 13.03537 0.69407487 59
9.8291016 13.119713 0.7026186 59
10.107407 13.181465 0.7088306 59
-2.5388947 12.940163 -1.6096475 38
-2.2912598 12.951218 -1.5986466 38
7.5261688 12.886368 -1.3526509 41
3.230423 12.857811 -1.1335664 42
7.5215607 12.874893 -1.0884216 43
7.6443481 12.786957 -1.0779002 43.200001
11.752945 12.760567 -0.92313433 46
3.2550659 12.809174 -0.84516716 44.57143
7.5141602 12.887321 -0.74826002 46
7.6278839 12.773956 -0.74829245 46
7.8538361 12.80468 -0.85135603 45
11.707626 12.832458 -0.61005998 48
11.781906 12.771072 -0.71602106 47.5
3.240921 12.781441 -0.57637906 47
7.5198975 12.856476 -0.56615973 48
7.6631927 12.698357 -0.51991749 48.5
11.783386 12.879478 -0.51668882 49
7.6596527 12.784805 -0.21102476 51.125
7.9620514 12.7948 -0.22854757 51
7.6368866 12.752922 0.12432241 54
7.9414825 12.754776 0.12365365 54
8.1936493 12.803017 0.14455771 54.25
8.570282 12.866562 0.076227188 53.5
7.6379852 12.777557 0.34806967 56.5
8.0063629 12.766953 0.35227728 56.333332
8.2872314 12.804893 0.45736384 57
8.5541687 12.864471 0.48724627 57.25
8.7116394 12.887993 0.47775412 57
7.9731293 12.729248 0.61588216 58.5
8.2156067 12.78112 0.63638783 58.666668
8.5721588 12.858131 0.67494369 59
8.704895 12.879005 0.67746973 59
8.0300751 12.730011 1.0599625 62.5
-0.70960999 12.356529 -1.5838258 37
-0.52568054 12.382896 -1.582696 36
3.3517456 12.414909 -0.88400865 44
3.3329926 12.444046 -0.71334958 46
7.9750519 12.341331 -0.49938416 48.666668
8.148819 12.334526 -0.2987175 50
7.9877014 12.36132 0.12533164 54
-1.947464 12.178917 -1.6057456 37
-1.6542969 12.199944 -1.5955839 37
-1.3411407 12.233719 -1.5879261 37
-1.0263672 12.29348 -1.5848439 37
-0.81494141 12.327454 -1.5832398 37
3.3822784 12.27562 -1.1036632 41.5
-6.3834381 12.052406 -0.97665095 46
3.3807678 12.277435 -0.8724637 44
-6.3982391 12.05291 -0.89488792 47
3.3549042 12.307076 -0.66324568 46.5
8.1043854 12.248169 -0.5561409 48
8.1219482 12.304405 -0.47339463 49
-6.3119049 11.932907 -1.2790613 43
3.4958038 11.88414 -1.1689773 40.25
-6.3668671 11.99041 -1.1013095 44.5
3.4736786 11.89209 -0.94768715 43
3.4546356 11.911186 -0.7118628 45.5
5.5167694 11.723236 0.36245251 57
-1.5724182 11.519302 -1.6012082 35
-1.3389893 11.540154 -1.5945618 35
-1.0530701 11.58448 -1.5902224 35
-0.75624084 11.638771 -1.5885811 35
-0.38124084 11.692322 -1.5806189 35.5
3.5164185 11.726311 -1.2969143 39
3.5081482 11.733009 -0.94261122 43
3.4971619 11.696815 -0.6958282 45.5
5.3290863 11.57531 -0.22979522 51
5.4944916 11.454987 -0.22771955 51
5.3566132 11.59008 -0.013537407 53
5.5093079 11.467125 0.0019376278 53.200001
5.7148132 11.434723 -0.010330677 53
5.6191406 11.64492 0.39535522 57.5
5.6061859 11.663597 0.59263635 59
3.6221619 11.214836 -1.240036 39
3.6422119 11.253204 -1.1092701 40
3.6235657 11.220566 -0.81950569 44
3.6374359 11.211006 -0.97975731 41.75
5.4165802 11.144165 -0.94797492 43
5.4445801 11.133675 -0.80443215 44
3.6152954 11.194275 -0.55132842 47
3.6227417 11.195335 -0.65971422 45.5
5.3286743 11.277405 -0.54515862 47.200001
5.5991058 11.169823 -0.57253814 47
5.7554779 11.166618 -0.59625959 46.75
5.3453674 11.398491 -0.33846116 49.5
5.5626068 11.330116 -0.3161552 49.799999
5.7682495 11.283821 -0.34115148 49.5
5.7052612 11.399307 -0.015678883 53
1.3213043 10.854568 -1.3519788 37
3.7014313 10.848145 -1.1990821 39
5.3642426 11.067749 -1.2047229 39.75
5.5923309 11.014458 -1.1806414 40
5.8239594 11.049492 -1.1570933 40.5
-6.1290283 10.849594 -1.1136494 44
1.371582 10.954979 -0.8480258 43
3.6946106 10.943672 -0.95630932 41.666668
5.3888702 11.071404 -1.0206983 42
5.6116486 11.07827 -0.84457946 43.833332
5.7664642 11.10051 -0.8518393 44
-6.149353 10.90921 -0.8531301 46.5
1.3028717 10.93544 -0.77308726 44
1.627182 10.965805 -0.77547574 44
3.6432953 11.078278 -0.61583471 46
5.4250183 11.127678 -0.73449469 45
-6.1633148 10.958397 -0.66468501 49
-5.9701233 10.956085 -0.21238804 53.5
-5.9572601 10.879402 0.033930063 56.25
1.0703125 10.563065 -1.5894623 33
1.0619812 10.754692 -1.2173097 38.285713
1.2869415 10.826981 -1.2542911 38
3.7210236 10.6968 -1.182513 39
8.9737396 10.558617 -1.0055878 43
-6.0946503 10.821335 -1.1708426 43
3.7596893 10.63913 -0.89493823 42.25
8.9751282 10.594246 -0.83028245 45
-6.0657959 10.563957 -0.78894305 47
3.7652588 10.675499 -0.60830832 45.833332
8.9746399 10.599617 -0.60695362 47
-6.0958862 10.609764 -0.64505458 49
-5.9388123 10.778961 -0.20871329 53.5
-5.9411774 10.784645 -0.02195549 55.5
0.16944885 10.539581 -1.5913258 33
0.47895813 10.542694 -1.587992 33
0.77862549 10.551643 -1.5875993 33
-6.0245361 10.491318 -1.1080508 43.5
3.8335876 10.345367 -0.88093328 42.142857
-6.0175781 10.344818 -0.84976315 46
3.8085175 10.386116 -0.69324017 44.5
-6.0131836 10.262863 -0.64840221 48.666668
-5.8807526 10.264145 0.085098982 57
-5.853775 10.217789 0.30254745 59
6.1086273 9.9608383 -1.4317605 36
7.0979156 10.081505 -1.4199355 37
7.2820282 9.9570465 -1.4225943 37
3.901535 10.030304 -1.1910381 38.200001
6.4720306 10.151443 -1.1232741 40.200001
3.916153 10.13739 -0.93558717 41.5
-5.9350891 9.9389801 -0.78206038 46.5
3.8959198 10.096878 -0.73467612 44
-6.0039825 10.207375 -0.6916256 48
-5.9515381 9.9715958 -0.64279723 48.5
-5.8524323 10.153091 -0.22980142 53.5
-5.8693848 10.166077 -0.019607782 55.5
6.2236633 9.9149246 -1.4355078 36
6.425293 9.7785034 -1.4357083 36
7.4508667 9.7895126 -1.4199216 37
3.9542694 9.8234787 -1.2353253 37.5
-5.8612213 9.6923981 -1.0618479 43
4.0539703 9.7243652 -0.95263886 41
4.3126068 9.8397141 -0.89993429 41.666668
4.5736389 9.8132172 -0.88523912 42
-5.8862915 9.7251816 -0.8712256 45.5
3.9795074 9.7726669 -0.70926642 44
4.3347473 9.8922272 -0.79580164 43
-1.6091461 9.4233322 -1.6518128 31
-1.3078918 9.4344788 -1.6383722 31
-1.0181732 9.4475021 -1.6279733 31
-0.72517395 9.4687195 -1.6206305 31
-0.44734192 9.5018845 -1.6179698 31
2.9255219 9.5325851 -1.5487576 32
3.2748718 9.3975143 -1.5433648 32
6.6268616 9.6334076 -1.43594 36
6.8261108 9.4698486 -1.4352074 36
7.7136841 9.5590744 -1.4202485 37
-5.8036194 9.3738327 -0.88789463 45
-5.8096008 9.3670044 -0.64055848 48
-1.182312 9.0653763 -1.6395121 30
-1.0247955 9.0725098 -1.6339974 30
-0.7890625 9.0825958 -1.6262574 30
-0.47540283 9.107666 -1.6209364 30
-0.23527527 9.2529984 -1.6064279 30
0.48628235 9.2817764 -1.6014619 30
0.83511353 9.3330002 -1.6104474 30
1.0938416 9.3111115 -1.6080039 30
1.4046326 9.3069839 -1.6118605 30
1.7102051 9.2536774 -1.6079125 30
1.9779968 9.252388 -1.6151278 30
3.5112457 9.2893829 -1.5391665 32
7.1322784 9.1800842 -1.4318819 36
-5.7619934 9.1664047 -0.86293697 45.5
-5.7606812 9.1727982 -0.65956759 47.5
-5.6397095 9.2116776 0.09711504 57.200001
-5.6286163 9.2105713 0.30122471 60
-3.0988464 8.7815399 -1.7214799 30
-2.7910614 8.8640518 -1.7089617 30
-2.4792175 8.9318008 -1.6958203 30
-2.2733612 8.9690323 -1.6863487 30
-1.9020233 9.0074387 -1.6686239 30
-1.6274261 9.0433121 -1.6585131 30
-1.4185028 9.0531158 -1.6488338 30
-0.2233429 8.9502792 -1.6149392 29
0.42320251 8.9788971 -1.610359 29
0.74415588 8.9693146 -1.6081476 29
1.0833893 8.9959564 -1.6161366 29
1.4253845 9.0144424 -1.6248343 29
1.6723022 8.9622955 -1.6206245 29
1.8946686 8.924942 -1.6204803 29
2.2684479 8.937149 -1.5892587 29.666666
2.6009369 8.88517 -1.5718491 30
2.8102722 8.7861786 -1.5639732 30
3.5661621 8.8493118 -1.5440166 31
3.7532959 8.7592392 -1.5418499 31
7.3738251 8.967041 -1.4324045 36
-5.7106018 8.9461746 -0.87486291 45
-5.7253723 8.9538345 -0.68013382 47
-5.5312805 8.769165 -0.19393659 53.5
-5.5565033 8.8355942 0.012676239 56.375
-5.5531311 8.8192291 0.24433994 59.5
-3.3822174 8.6355362 -1.7234492 30
-2.5267181 8.5096664 -1.6993558 29
-2.2245789 8.552681 -1.6826754 29
-1.8867188 8.6041641 -1.6687427 29
-1.5751038 8.6353912 -1.6549914 29
-1.3123474 8.662323 -1.6454043 29
-0.97244263 8.6730804 -1.6312017 29
-0.71061707 8.6922302 -1.6246347 29
-0.37348938 8.7153091 -1.6183791 29
-0.21253967 8.5502396 -1.6146095 28
0.52694702 8.5695343 -1.6095304 28
0.8475647 8.5462418 -1.6055138 28
1.1297607 8.5337372 -1.6062474 28
1.437088 8.5082855 -1.6068544 28
1.7234497 8.4936981 -1.6130793 28
2.305481 8.7190247 -1.5961375 29
2.5319061 8.6044388 -1.5848832 29
2.8114319 8.5060654 -1.5814619 29
3.1564636 8.6510696 -1.5600393 30
3.4576874 8.4787674 -1.5497746 30
3.8509369 8.7017441 -1.5396769 31
4.036438 8.5567551 -1.5301042 31
-5.5342102 8.6878662 0.08667469 57
-3.9317169 8.2550201 -1.6429439 31
-3.8144226 8.3437195 -1.644347 31
-3.3883209 8.243103 -1.6937003 29.5
-3.1029205 8.3581161 -1.7236602 29
-2.8086548 8.3100433 -1.721211 28.5
-2.5701141 8.2055588 -1.7141743 28
-2.2936707 8.2588959 -1.7007098 28
-1.9056702 8.3108368 -1.6817005 28
-1.5801239 8.357193 -1.6691856 28
-1.2879333 8.3741074 -1.6555331 28
-0.93809509 8.4002762 -1.643394 27.5
-0.2171936 8.3100967 -1.6201072 27
0.50015259 8.2356873 -1.6158786 27
0.81214905 8.2034454 -1.6098306 27
1.1211243 8.1821365 -1.6095071 27
3.0102386 8.4031601 -1.5739398 29
3.2142029 8.3154526 -1.5718229 29
3.4274902 8.1810684 -1.562999 29
3.7243958 8.3297577 -1.543766 30
4.0725098 8.2990265 -1.5281932 30.5
4.3752594 8.2650146 -1.5113549 31
-5.5729828 8.3679123 -1.121551 41
-5.5579834 8.2648087 -0.95419478 43
-5.4273987 8.2550964 0.058869839 57.200001
-5.3869934 8.1317749 -0.063094854 55.5
-5.4408722 8.3237152 0.26646423 60
-5.3804321 8.1363907 0.20387483 59
-4.2106323 8.0344849 -1.6399367 31
-4.1021881 8.1258926 -1.6418183 31
-3.7109222 7.9867554 -1.6458948 30
-3.1465759 8.069252 -1.7445312 28
-2.9337158 8.1339493 -1.7350452 28
-1.0203552 8.0087662 -1.6496825 26
-0.82409668 8.0070953 -1.640115 26
-0.45597839 8.0232086 -1.6301582 26
-0.19017029 7.9501114 -1.6409996 26
0.31335449 7.9817352 -1.6404252 26
0.52055359 7.9778061 -1.6390083 26
0.79243469 7.9729996 -1.6402059 26
1.0522156 7.9487381 -1.6382983 26
1.4373627 8.1542511 -1.6112418 27
1.65271 8.1310806 -1.6132851 27
2.8630676 8.0156174 -1.5745866 28
3.0519409 7.8696213 -1.5591547 28
3.6222839 8.0758514 -1.5596442 29
3.8725281 7.9187393 -1.5537515 29
4.1152039 8.036026 -1.5272062 30
4.2788849 7.8652496 -1.5136273 30
4.6924591 8.0154343 -1.5018442 31
4.8490906 7.8778534 -1.4961965 31
-4.3829346 7.8988037 -1.6395426 31
-5.4790344 7.9402313 -1.1007171 40.5
-5.4950714 7.9695129 -0.92001867 43.5
-5.5223389 8.093689 -0.66138554 47
-5.3602905 8.0089874 -0.040997267 55.666668
16.927673 7.7875748 0.86922145 60
16.721191 7.9568787 1.0456216 61.5
16.832977 7.8466568 0.9981904 61
16.792358 7.8202286 1.2301462 63
-3.9784088 7.7822876 -1.6423657 30
-3.6269836 7.5913315 -1.6413782 29
-3.4484863 7.7423553 -1.6476915 29
-1.554184 7.5575409 -1.6613042 25
-1.3568726 7.5764542 -1.6520691 25
-1.060379 7.5963974 -1.639472 25
-0.69168091 7.63694 -1.6317353 25
-0.39686584 7.672699 -1.6294568 25
-0.19358826 7.6452637 -1.6235042 25
0.30612183 7.6626358 -1.6268592 25
0.43032837 7.6638107 -1.6270945 25
0.73316956 7.6532288 -1.6267917 25
1.0113831 7.6200943 -1.6232586 25
3.2445374 7.7703247 -1.5551505 28
3.4157104 7.6432877 -1.546001 28
4.1412201 7.7102509 -1.5423529 29
4.4476776 7.7101898 -1.504936 30
4.6192322 7.5632172 -1.4989283 30
-4.5121307 7.795784 -1.6396966 31
-4.2097168 7.5875473 -1.6392813 30
16.962173 7.6732483 0.8662889 60
16.867203 7.5772858 1.0269005 61.400002
16.839294 7.5920715 1.2226567 63
-3.6425018 7.2818985 -1.6543102 28
-3.4198761 7.4513626 -1.6580293 28
-1.9460907 7.4533844 -1.6949496 24.666666
-1.6947479 7.3998108 -1.6904805 24.333334
-1.3825531 7.3557129 -1.6854413 24
-1.0426025 7.3845749 -1.6719003 24
-0.81878662 7.3942947 -1.6623955 24
-0.17605591 7.3182144 -1.6155577 24
0.30603027 7.3416367 -1.6151969 24
0.48736572 7.3790512 -1.6245151 24
3.217865 7.3887787 -1.5573087 27
3.7545013 7.4388199 -1.539196 28
4.0220642 7.2538528 -1.5333135 28
4.4439697 7.3990173 -1.5215049 29
4.7775574 7.400238 -1.4907186 30
-4.4338379 7.3887177 -1.6366825 30
-3.9743652 7.3335648 -1.6396997 29
-3.8046875 7.4680176 -1.6414506 29
-5.3815613 7.3622131 -0.93501782 42.5
-5.3573608 7.3502884 -1.0344486 40.5
8.08992 7.3709183 -0.44677544 48
8.1489563 7.3341827 -0.36729121 48.75
8.1394653 7.3415146 -0.12157679 51.5
-5.2138824 7.4076309 -0.023220062 56
8.7703247 7.2966309 0.38441968 58
8.7531891 7.2857666 0.49603677 59.5
16.998108 7.4644165 0.86035395 60
16.924362 7.437027 0.98599195 61
16.865936 7.4440613 1.2181416 63
-3.8156281 7.1661148 -1.6555586 28
-0.59664917 7.1053238 -1.6456227 22
-0.36247253 7.0945206 -1.6350341 22
-0.17446899 7.1218948 -1.624537 22.5
0.27981567 7.1499863 -1.6129484 23
0.46908569 7.1539993 -1.6141591 23
1.4857483 7.0880508 -1.6234803 23
1.6747589 7.0492859 -1.6235876 23
3.5055847 7.2012329 -1.5477276 27
3.7270355 7.0405884 -1.5395594 27
4.2451324 7.0887222 -1.5292649 28
4.6543579 7.1956024 -1.5114589 29
4.9740448 7.1297531 -1.4939685 29.666666
5.2528839 7.0036697 -1.4866374 30
-4.8141785 7.0384979 -1.6356003 30
-4.652832 7.1892471 -1.6350036 30
-4.3539429 7.0077209 -1.6363335 29
-4.0782776 7.0924149 -1.6446362 28.5
-5.2708435 7.10466 -1.2501171 37
-5.2874908 7.0218277 -0.91099572 42.166668
-5.2960663 7.1077194 -0.59889388 47.200001
7.9790497 6.9736786 -0.27167153 49.5
-5.1719055 7.0313339 -0.33079171 51.333332
8.069931 7.0014801 -0.12646842 52
8.1889954 6.9420547 0.032806635 53.5
8.2332458 6.9838104 0.15768886 55.5
8.8337708 7.0589981 0.24214649 56.166668
8.8071289 7.0674896 0.48002958 59.333332
-1.6074371 6.7456894 -1.686007 21
-1.3717957 6.7733002 -1.6741791 21
-1.0728149 6.8231735 -1.6668415 21
-0.6884613 6.8387909 -1.6505141 21
-0.45376587 6.7465286 -1.6409178 20.5
-0.16775513 6.8485336 -1.6435308 20.666666
0.26512146 6.7491684 -1.6462152 20
0.44889832 6.7700882 -1.6529987 20
0.75823975 6.7522583 -1.6522667 20
1.0858917 6.7206116 -1.653753 20
3.1395569 6.8290405 -1.5773935 24
3.3408661 6.6967545 -1.5714974 24
3.8905182 6.914032 -1.5345604 27
4.05896 6.7879486 -1.530941 27
4.4296722 6.8689728 -1.5127916 28
4.6217651 6.6675644 -1.503571 28
5.0843964 6.8125534 -1.5044148 29
-5.1415863 6.7528992 -1.6424162 30
-4.9749603 6.8906784 -1.6370995 30
-4.5662384 6.8223801 -1.6370857 29
-4.2159729 6.8153992 -1.6499074 28
-3.645874 6.7731705 -1.6411629 27
-5.1823578 6.6957016 -1.2040343 37
8.953476 6.752449 -0.94706821 42
-5.2349396 6.779808 -0.92197824 41.5
8.2770386 6.685112 -0.64886928 45
8.4748535 6.6825638 -0.51326537 47
8.9342651 6.679451 -0.64938402 45.599998
8.0778961 6.7709656 -0.24276662 50
8.1316528 6.8343353 -0.400949 48
8.4654083 6.6624527 -0.31975961 49.25
8.8979034 6.7277374 -0.34014368 49.125
8.1033936 6.7901688 -0.15053368 51.5
8.2415009 6.731926 -0.00041913986 53.200001
8.4828033 6.7398071 -0.096576929 52
8.894455 6.7130966 0.017588139 53.5
-5.1034851 6.905632 -0.17481494 54
-5.0500031 6.7721252 -0.044748783 55.857143
8.2631989 6.7248993 0.12401509 55
8.9128571 6.7161713 0.25687838 56.42857
-5.0054932 6.6008835 0.12798285 59
8.8811035 6.7135925 0.48333406 59.5
-1.8377228 6.4917526 -1.6907163 20
-1.6448059 6.548172 -1.6868985 20
-1.2548828 6.4835052 -1.6769121 19.5
-1.0151825 6.5514526 -1.6658401 19.666666
-0.76922607 6.5312347 -1.6594458 19.5
-0.40249634 6.5121231 -1.6519806 19.333334
-0.16638184 6.5558701 -1.6393821 19.5
0.26301575 6.4955063 -1.6414323 19
0.42726135 6.4923553 -1.6419137 19
0.75445557 6.4781036 -1.6434176 19
1.082489 6.4541245 -1.6477258 19
1.2882233 6.4109497 -1.6450896 19
2.3383942 6.3943634 -1.6531146 20
2.9639893 6.4364624 -1.5863073 23
3.3164215 6.4138947 -1.5750935 23
3.4908142 6.5841141 -1.5658393 24
3.6853027 6.4288559 -1.5580766 24
4.3311615 6.5454407 -1.5215433 27
-5.1204681 6.5164795 -1.60531 30
-4.8666534 6.5293427 -1.6378129 29
-4.6158752 6.4426422 -1.6484647 28
-4.4277191 6.6436462 -1.6522291 28
-3.9977112 6.4766541 -1.6373162 27
-3.7998505 6.6497498 -1.6392508 27
-3.3433228 6.5973587 -1.6407261 25
-3.1834717 6.4247742 -1.6612179 24
8.9688416 6.4938507 -0.63934803 45.666668
9.0225525 6.3966522 -0.61139464 46
8.9708405 6.4880676 -0.36312699 49
8.9568939 6.4582977 0.02727747 53.666668
-4.9929504 6.5055771 0.053224087 57.333332
8.9559479 6.4844055 0.24332643 56.333332
9.0285034 6.4013824 0.31203723 57
-5.0006409 6.5703354 0.18417335 60
8.9373779 6.4375687 0.47711229 59.5
-1.7791748 6.3084106 -1.7151678 19
-1.5794983 6.1969604 -1.7097232 18.333334
-1.3747711 6.2573776 -1.6969392 18.5
-1.0664978 6.1979446 -1.6897624 18
-0.14198303 6.2685089 -1.6497643 17.5
0.25578308 6.3110733 -1.6405351 18
0.52023315 6.297554 -1.6381347 18
0.83740234 6.2822189 -1.6411419 18
1.0509033 6.2724457 -1.64676 18
1.2509918 6.2336731 -1.6456056 18
2.306015 6.113678 -1.6459825 19
2.5700226 6.2995529 -1.6530921 20
3.2328339 6.2488098 -1.5762007 22.5
3.5128784 6.1763153 -1.5652499 22.666666
3.7911377 6.1840973 -1.5553598 23.5
-4.8038635 6.247612 -1.648021 28
-4.3307495 6.1701355 -1.6354082 27
-4.1355286 6.3355484 -1.6331217 27
-3.6599731 6.0667877 -1.6594331 24
-3.3892059 6.2628632 -1.6579332 24
-3.1061554 6.1097336 -1.6431031 23
-5.0833435 6.2565079 -1.2010922 36
-5.0616608 6.2237091 -1.1888983 36
9.007843 6.2401047 -0.6618166 45.5
9.0520477 6.1693039 -0.6688261 45.25
9.0248413 6.2242126 -0.36191797 49
-4.9568634 6.177948 -0.36818981 50.416668
8.9868469 6.2606277 -0.019408703 53
9.0198364 6.1109543 -0.030478239 53
-4.9243927 6.2252502 -0.068163157 55.5
9.0327454 6.16922 0.25332117 56.400002
-4.9025726 6.1327515 0.16347075 59.75
8.9749908 6.2059784 0.50417733 60
9.0220337 6.0575943 0.45700359 59.333332
-2.7259064 5.7946014 -1.7671726 18
-2.6240997 5.8323441 -1.7608371 18
-1.0591431 5.7747421 -1.6881688 15
-0.71115112 5.9075851 -1.6732559 15.6
-0.36209106 5.8886719 -1.6573274 15.5
-0.15892029 5.8842545 -1.6502578 15.5
2.1003113 5.9140167 -1.6517243 17.5
2.2683563 5.8549423 -1.6542711 17.5
2.5812988 5.8607941 -1.6465635 18.333334
2.8470001 5.9444275 -1.6319866 19.5
3.2088776 5.8781281 -1.5983553 20.5
3.4982605 5.8831177 -1.5701215 21.5
-4.9824219 5.9135742 -1.62696 28
-4.6174316 5.8832321 -1.6359282 27
-3.9807129 5.7953568 -1.6596866 24
-3.801178 5.9549484 -1.6604078 24
-3.4376678 5.8943253 -1.6482477 23
-3.1010284 5.849472 -1.6498394 22
-2.9220428 5.868103 -1.6492145 21.5
-4.9798584 5.7678909 -1.1638732 35.5
-4.9833374 5.7565231 -1.0687339 37
9.0596924 5.7955704 0.044321299 54
-4.8136292 5.741188 -0.029625177 56.5
9.106781 5.8694611 0.22596288 56.444443
-4.8317719 5.7683105 0.10243034 58.5
9.0733032 5.7779617 0.46135998 59.5
-2.2510681 5.4997711 -1.7402341 15
-1.495224 5.7075424 -1.7067406 15
-1.3488159 5.7396698 -1.7021437 15
2.3681946 5.5985565 -1.6694732 16
2.6066589 5.6315842 -1.6620667 17
2.8940735 5.596077 -1.640028 18
3.2002258 5.5964355 -1.6084788 19.333334
-4.919693 5.5895691 -1.5399368 28.5
-4.2207489 5.5910797 -1.6644022 24
-3.7814026 5.6274948 -1.6513512 23
-3.388443 5.559227 -1.6550989 21.5
-3.0961304 5.6545486 -1.6505485 21
-4.9827423 5.5818634 -1.3919091 31
5.9338989 5.425705 -0.64326906 42
5.9194641 5.4556885 -0.52878857 44.5
-4.8005371 5.6978989 -0.14102888 54
-4.7774811 5.5101852 -0.0054738522 57
9.1729889 5.5404205 0.30056548 57.333332
-4.7687988 5.4932938 0.17407465 60.166668
9.1297607 5.4987488 0.45455217 59.5
-2.6759491 5.2931213 -1.7506902 15
-2.4980164 5.3492889 -1.7555549 14.666667
-2.3592072 5.2933807 -1.7559528 14
2.2758179 5.3951797 -1.6499927 15
2.5809174 5.3177261 -1.6550677 15.333333
2.8885651 5.3272629 -1.6717682 16
3.0716705 5.391243 -1.6146812 18
-5.1427612 5.3919907 -1.5798745 28
-4.8965149 5.4182434 -1.4787562 29
-4.5155792 5.2731323 -1.6643419 24
-4.2921448 5.2821579 -1.6608129 23.333334
-4.0145874 5.3291321 -1.6566148 22.666666
-3.7012329 5.3190994 -1.656004 21.6
-3.4768219 5.3952103 -1.657464 21
-3.0649414 5.2425079 -1.6854918 18
-2.7751007 5.307579 -1.6835511 17.5
-4.8961029 5.3547974 -1.2887211 32.25
-4.8878174 5.3095932 -1.0943623 35.666668
5.9184418 5.4090958 -0.60610533 43
8.5326996 5.3004227 -0.71439004 44
-4.8270569 5.3193054 -0.56872678 46
8.5432129 5.2266998 -0.4318943 47.833332
-4.7991638 5.3512955 -0.44569707 48.5
-4.7841949 5.3814163 -0.28292131 51.5
8.5996552 5.1144867 -0.24654794 50
9.2250671 5.1599884 0.035537958 54
-4.7286072 5.2781982 -0.10096312 55.099998
9.2384491 5.2111511 0.20894337 56.400002
-4.7557373 5.3866882 0.23446703 61.5
9.203537 5.2076416 0.48038816 60
9.2271576 5.2445526 0.67075801 62
-2.5613861 5.0721359 -1.77248 13
2.891449 5.0940857 -1.6616488 15
-4.8048553 5.0446243 -1.5385444 27
-4.7449341 4.8652802 -1.5689099 26
-4.2908783 4.977478 -1.6558092 22.5
-4.0063782 4.9707336 -1.6574738 21.333334
-3.7984314 5.1053085 -1.657346 21
-3.3488617 5.0306702 -1.6881378 18
-3.1090393 4.9098663 -1.6780462 17
-2.8670044 5.0748749 -1.6737447 17
-4.8270874 5.0646439 -1.0095105 37.5
8.4709473 5.0199585 -0.59559059 45
8.8251038 4.9976044 -0.63998461 45
9.2878723 4.9744492 -0.67854571 45
-4.8201141 4.8553925 -0.66416812 44
8.5731201 5.0444946 -0.45100522 47.5
8.8383636 4.9733734 -0.45229363 47.75
9.2819824 4.9333801 -0.37904406 48.799999
-4.653595 4.911026 -0.39154983 49.285713
8.675766 5.0202713 -0.24992609 50
9.2672882 4.9631805 -0.053529024 53
9.3551178 4.9117432 -0.21531725 51
-4.6426697 4.9248123 -0.094629765 55.25
9.2743073 4.988739 0.1950388 56.333332
9.319931 4.8991089 0.30032015 57.333332
-4.6722565 5.0004959 0.1735332 60.5
9.258316 4.9066467 0.44012165 59.5
9.3221283 4.9143906 0.53914475 61
9.2855377 4.9651413 0.66207266 62
-2.7051086 4.7595596 -1.7109027 13
-2.5484619 4.7958679 -1.7441216 12
2.5888367 4.6299362 -1.6710997 10.5
-4.66745 4.7566299 -1.5839705 24.75
-4.3338928 4.6758652 -1.6536679 21.75
-4.0472107 4.6941528 -1.663003 20.5
-3.6681061 4.7166901 -1.6839099 18
-3.3703461 4.6613159 -1.6717892 17
-3.0616608 4.7464066 -1.6790018 16
-2.7975769 4.7144623 -1.701998 13.333333
-2.5706024 4.626297 -1.6966805 12
-4.7628937 4.8393631 -1.4310045 28
-4.7458801 4.7584763 -0.97009659 37.5
9.309494 4.8186417 -0.71704221 44.5
9.3589172 4.6462173 -0.65980768 45.166668
-4.7727051 4.8025055 -0.73603654 42
9.3007355 4.8085022 -0.49788356 47.5
9.3509979 4.6434326 -0.38455963 48.666668
-4.5957336 4.62883 -0.36728764 49.5
9.2916107 4.7994308 -0.0020859241 53.5
9.3524475 4.6266251 -0.12034488 52.333332
-4.5809021 4.6122818 -0.096171141 55.25
9.29599 4.79599 0.089800358 55
9.3531036 4.6279144 0.1172545 55.5
-4.5814056 4.5921173 0.11571288 60
-2.431839 4.4118881 -1.7749631 8
2.6035309 4.5344086 -1.6698244 10
-4.5581665 4.4489975 -1.6530528 22
-4.3260803 4.4811172 -1.6496036 21
-4.1263885 4.4166183 -1.6642199 20
-3.6122284 4.4076462 -1.6679657 17
-3.3717957 4.4461746 -1.6718841 16
-3.0995941 4.3997116 -1.6974411 13
-2.8154907 4.3466339 -1.6826751 11.75
-2.5966187 4.3957672 -1.6911774 11
-4.6642151 4.2941971 -1.2879059 30
-4.6473541 4.244812 -0.9878819 36
9.3874664 4.3721008 -0.70009708 44.75
-4.6713257 4.3265228 -0.67560172 43
9.3869934 4.414299 -0.42283821 48.375
-4.5327301 4.3161774 -0.32650042 50.142857
9.3969574 4.3873291 -0.089395523 52.599998
-4.5450897 4.3462448 -0.12423325 54.75
9.4029388 4.3826218 0.11252141 55.5
-4.5610962 4.3501663 0.11238694 60
-4.5027618 4.0379105 -1.6009905 21.4
-4.3316956 4.159668 -1.665827 20
-3.9441833 4.0353012 -1.6694782 17
-3.7888947 4.1479721 -1.6705742 16.666666
-3.4660797 4.158638 -1.6771324 14.666667
-3.0986328 4.0718613 -1.6787846 11.666667
-2.8717499 4.0696182 -1.6855917 10.5
-2.4627075 4.0880585 -1.7021894 7.5
-4.6207581 4.1463623 -1.2594678 30
-4.636734 4.1604919 -1.0212307 35
9.4585419 4.0930481 -0.67940736 45
-4.5687103 3.9400406 -0.82267094 38.5
9.457077 4.0967941 -0.41076088 48.5
-4.4662781 4.0145874 -0.3163352 50
9.4657745 4.0855408 -0.10638285 52.5
-4.4962006 3.9971924 -0.2093873 53
-4.4710388 4.0290909 -0.085077763 55.615383
9.4649048 4.0802307 0.1066401 55.5
9.6363068 4.0531616 0.28112292 57.333332
-4.5067139 4.0768661 0.075098753 59
-4.4693146 4.025589 0.073366165 59.25
9.5952759 4.0103607 0.38734436 59
9.6194763 4.0007553 0.48379421 60.5
9.5824432 3.9589691 0.68831873 63
9.616806 3.9805145 0.63670421 62
-4.4794464 3.7442093 -1.5735335 21
-4.1827393 3.6842651 -1.6651075 17
-4.0024872 3.7817688 -1.6673057 16.333334
-3.7110291 3.8212662 -1.6784885 14.75
-3.3257599 3.6984482 -1.6798685 11
-3.1269531 3.8023224 -1.683152 10.4
-2.7424164 3.7505417 -1.6914983 7
-2.4914398 3.8489304 -1.6963198 6
-4.5419617 3.7793961 -0.90788555 36.5
9.5392609 3.7561569 -0.6640048 45.25
-4.5286407 3.7933807 -0.83444166 38
9.5371857 3.7505798 -0.41562128 48.5
-4.4486694 3.840004 -0.4189589 47.875
9.5429382 3.7814255 -0.14268136 52.166668
-4.4290161 3.7837067 -0.12972522 54.57143
9.5430756 3.7237473 0.099132061 55.5
9.7100525 3.7903366 0.25715089 57
-4.4219971 3.8427734 0.11794853 60.5
-4.2358856 3.6079102 -1.6656466 17
-4.0140228 3.4851532 -1.6729293 15.166667
-3.7814331 3.5378571 -1.6848927 13.666667
-3.4550323 3.5364075 -1.6745641 11.5
-3.1016083 3.5029449 -1.685725 8
-2.8296051 3.5024872 -1.6888781 5.8000002
-2.4929657 3.5363693 -1.7142196 2.75
-4.5087128 3.6077805 -1.1274097 31
-4.4347229 3.3792267 -0.92723083 35
2.1883392 3.335556 -1.0296211 17
9.5470123 3.5581284 -0.7217536 44.5
-4.4343262 3.3797455 -0.82454801 37.25
9.5733032 3.5172424 -0.35832119 49.200001
9.6284943 3.3692017 -0.42208457 48.5
-4.3490295 3.4550705 -0.3831234 48.416668
9.5638275 3.4708328 -0.048594236 53.285713
9.6537018 3.4476624 -0.21969771 51.333332
-4.3675232 3.4865952 -0.1043961 55.333332
9.5867157 3.4360123 0.062687874 55
9.6213837 3.4731369 0.12289739 56
9.9116974 3.4387665 0.30148387 58
-4.363678 3.4696884 0.088527203 60.166668
9.9515381 3.4308167 0.43951845 60
-4.253418 3.1563721 -1.6682765 15.5
-4.1075287 3.2249985 -1.6839225 14.5
-3.824234 3.2275772 -1.6658609 13
-3.5014496 3.2667313 -1.678731 10
-3.0638123 3.3363876 -1.6831617 6.5
-2.9175262 3.2856827 -1.684123 5
2.2537384 3.0958099 -1.1863894 10.5
-4.389328 3.141777 -1.0556917 31.125
2.2189789 3.1245117 -0.94873714 18.5
9.6796112 3.1378479 -0.67449117 45.25
-4.4123535 3.2723541 -0.83537436 36.75
9.6548615 3.1858521 -0.42585397 48.5
-4.2783661 3.1464005 -0.35771227 48.666668
9.6813202 3.1494751 -0.14887881 52.200001
-4.2857513 3.1678925 -0.19174242 53.142857
9.6917267 3.1659622 0.1926055 56.799999
-4.2772064 3.1050568 0.11807132 61.57143
9.6953888 3.1533966 0.42795372 60
9.7005615 3.074852 0.60758162 62
-4.2658386 2.9200592 -1.6357336 15.428572
-3.9755402 2.913765 -1.6679385 12.75
-3.8221741 3.0056534 -1.6758418 12
-4.2933044 2.9163742 -1.3374803 23.375
-4.3012848 2.7646255 -1.1179638 28.5
2.2810059 2.8920517 -0.88455486 20.1
9.7097778 2.9313889 -0.7606039 44.200001
-4.2565155 2.7291336 -0.74269342 38.5
2.3529053 2.8607559 -0.72253799 26
9.7194672 2.8878021 -0.43243289 48.5
-4.2508087 2.9649734 -0.43015957 46.875
9.7247772 2.8792877 -0.13176513 52.5
-4.2273407 2.9198227 -0.16171527 54
-4.1822205 2.8077927 -0.1466136 54.200001
9.7162476 2.8824997 0.1550684 56.5
-4.2487335 2.9637451 0.067328691 60
-4.1726837 2.7188721 0.065860033 60.5
9.7051849 2.8707657 0.41970229 60
9.739624 2.8607941 0.60158992 62
-4.2610626 2.6941147 -1.6650751 14
-4.0604095 2.6489105 -1.6731229 12.333333
-3.6436157 2.486908 -1.6831474 7.5
-4.3262024 2.7159042 -1.0042889 31
2.3735199 2.5885544 -0.82544017 20.666666
2.4316254 2.432457 -0.88767433 18
-4.2473297 2.7077637 -0.75518417 38
-4.0924683 2.4934769 -0.36205769 48.285713
9.7658081 2.515419 -0.10385966 53
-4.1264496 2.5711212 -0.16039276 54
9.7714844 2.5572586 0.13201404 56.25
-4.1457062 2.6349182 0.070638657 60.666668
9.5664978 2.6270142 0.34924769 59
9.7707214 2.4969177 0.39654779 59.799999
9.8070221 2.5155716 0.59202266 62
-4.2020569 2.2912674 -1.5885577 14
-4.0585632 2.3543091 -1.656251 11.75
-3.6732635 2.2863998 -1.6847625 6.8000002
-4.1772156 2.4334488 -1.2242398 24
-4.1191711 2.2840347 -1.3293989 20.700001
-4.1248627 2.2084732 -1.0254676 29
2.3807831 2.2740707 -0.84674096 18
2.4639282 2.3158722 -0.84704161 19
-4.1443939 2.2677917 -0.74333072 37.25
9.8432922 2.1368637 -0.57162142 47
-4.038681 2.1697922 -0.4716208 44.5
9.8183441 2.2588196 -0.10513234 53
-4.0268097 2.2883453 -0.17925477 53.529411
9.8465729 2.2672729 0.13847494 56.5
9.8267059 2.2567749 0.39005089 59.799999
9.9125671 2.1609573 0.46489048 61
9.8621521 2.2459717 0.58460808 62
-3.7532501 2.0025787 -1.6839499 6.5
-3.5034943 1.9787064 -1.7142906 2.5
-4.0718079 2.0148315 -1.4905169 15.5
-4.0328827 2.0335388 -1.1918697 23
2.5122986 1.9707947 -0.84585309 17.5
3.6437683 1.9625015 -0.82093287 27
9.8944092 1.8976898 -0.70674276 45
9.969162 1.8760529 -0.65204334 46
2.4159241 2.1190643 -0.77427626 20
2.4839478 1.9152527 -0.73238015 21.5
3.962326 1.8515854 -0.75347733 30
9.8973389 2.0226212 -0.46763968 48.400002
9.9351807 1.8815918 -0.37858653 49.333332
-3.9861145 2.00354 -0.43965578 45.400002
9.8894501 1.973053 -0.11674905 53
-3.9471893 1.9453201 -0.17540479 53.599998
9.8920593 1.9843903 0.14359212 56.5
9.9202118 1.9599075 0.11681247 56.5
-3.9391937 1.8667374 0.041910648 60.57143
9.8750305 1.9753952 0.36310387 59.5
9.9427948 2.0017166 0.46046209 61
9.9087372 1.9909897 0.57747841 62
-3.9118195 1.7274323 -1.6746488 8
-3.6875763 1.7441559 -1.6954806 4.6666665
2.584198 1.6802521 -0.88091159 15
3.2666321 1.7345428 -0.79700327 24.5
