# .PCD v0.7 - Point Cloud Data file format
VERSION 0.7
FIELDS x y z intensity
SIZE 4 4 4 4
TYPE F F F F
COUNT 1 1 1 1
WIDTH 1302
HEIGHT 1
VIEWPOINT 0 0 0 1 0 0 0
POINTS 1302
DATA ascii
9.9254761 -1.3080521 0.5061655 57
9.5502777 -1.5069885 0.66410446 60
9.8575287 -1.387825 0.68487453 60
10.135208 -1.3270645 0.76761436 61
10.084183 -1.3277054 0.91166973 62.5
-5.6568298 -1.5835876 -2.0147872 22.5
-5.4282227 -1.5463409 -2.0218701 21
-3.326004 -1.6433487 -1.8568482 4.5
9.6715698 -1.6647186 -0.70388889 41
-4.0833588 -1.7398529 -1.4240537 25
2.417099 -1.6287079 -1.001111 10.857142
9.6344299 -1.6098022 -0.53089046 43.599998
-4.0307159 -1.6423264 -0.97163725 38
2.4214325 -1.490242 -0.78552675 18.5
2.4592133 -1.6116867 -0.70215368 23
9.615448 -1.5908279 -0.28727913 47
9.6536102 -1.6184464 -0.20633507 48
-4.0419159 -1.5971985 -0.87514448 40.5
9.596756 -1.6092911 0.065596581 51.5
9.6512604 -1.6366425 0.043916225 51.666668
-5.6912842 -1.6419296 -0.64828444 52.5
-5.6697083 -1.6261902 -0.69806194 51
-5.3387909 -1.7605362 -0.54670095 54
9.5911255 -1.689888 0.24146271 54
9.6071014 -1.6323853 0.38986874 56.25
9.5585175 -1.7041168 0.65833807 60
9.6227875 -1.6435242 0.66463614 60
9.6213379 -1.6360245 0.8428154 62
18.26709 -1.7892532 1.5067701 61.5
18.253189 -1.7484131 1.6944189 63
-3.267807 -1.7528458 -1.8339701 5
2.4340363 -1.9408951 -1.1427197 9
9.6522217 -1.9012833 -0.67335892 42
9.6636047 -1.8895798 -0.68832064 41.666668
-4.1905518 -1.7829971 -1.4240236 26
2.429306 -1.931488 -1.0081105 13.714286
9.6328125 -1.9077301 -0.54424047 43.75
9.6806335 -1.9781265 -0.37600231 46
2.4287109 -1.9683304 -0.77214527 23
2.4742737 -2.0116653 -0.76571941 24
9.6127472 -1.8813324 -0.30259752 47
9.6487427 -1.8991165 -0.18337584 48.5
-5.3243408 -1.9252319 -0.7439661 49.75
9.5978699 -1.9021149 0.052163124 51.5
9.6521912 -1.9472275 0.029202461 51.666668
-5.5178986 -2.0347214 -0.5294919 55.200001
-5.3251801 -1.8864899 -0.65494108 52
9.5913696 -1.891243 0.23279142 54
9.6199799 -1.9669876 0.34865904 55.857143
9.5568237 -1.9119415 0.65077877 60
9.6267853 -1.9231033 0.65557718 60
9.6199646 -2.0159225 0.83142948 62
18.266998 -1.9995575 1.4842391 61.333332
18.261398 -1.9164276 1.6905494 63
-3.2460022 -2.1167984 -1.8212318 8
-3.0295105 -2.2704926 -1.8400087 6
-4.2232056 -2.247879 -1.5459251 25
-3.9879303 -2.3027725 -1.5444746 23.5
2.4277039 -2.1817551 -1.138761 11
9.6496887 -2.185936 -0.69185972 42
9.6765137 -2.3049088 -0.75567055 41
-4.7726898 -2.3195648 -1.5697846 29
-4.0022125 -2.2351913 -1.3506055 28.4
2.427002 -2.2508545 -1.0122418 16.333334
9.6313934 -2.1954193 -0.47439528 44.75
9.666687 -2.2751694 -0.42362738 45.5
-3.9956055 -2.346611 -1.1093631 35.5
2.4125824 -2.1155853 -0.80381823 23
2.4707794 -2.2325211 -0.80294847 24.333334
9.6156769 -2.2129898 -0.24151325 48
9.6522369 -2.2045288 -0.20002604 48.5
-4.3995819 -2.2959671 -0.84882402 44.5
-4.056366 -2.3031235 -0.73439217 46.599998
9.5968628 -2.1977539 0.097034454 52.400002
9.6377258 -2.1805954 0.040295124 51.75
-4.5316162 -2.2832565 -0.4311657 56
-4.341629 -2.2745056 -0.4040103 56.5
-3.9982452 -2.2846451 -0.52576065 52.066666
9.5939331 -2.2174911 0.24711323 54.5
9.6329346 -2.2316284 0.39675426 56.42857
-4.6231537 -2.3035889 -0.23593903 61.5
-3.8548889 -2.348114 -0.21990013 61
9.567337 -2.2448578 0.64048386 60
9.6334991 -2.2412186 0.64520216 60
9.632431 -2.3139572 0.82370329 62
18.257935 -2.2764816 1.5069408 61.666668
18.26297 -2.2429123 1.6811895 63
-3.316925 -2.5125656 -1.8392744 11
-3.0846558 -2.462532 -1.8320398 8.5
-2.8706207 -2.3427887 -1.8638821 4
-3.9816437 -2.5738297 -1.5929909 23.5
2.4328156 -2.5516815 -1.1556311 14.5
9.6988373 -2.3991394 -0.82668591 40
-4.9870758 -2.4127045 -1.5859795 30
-3.9625092 -2.6022339 -1.4547477 27
2.4416351 -2.5899582 -1.0807538 17.25
2.4957275 -2.5341415 -0.83550119 25.5
-5.5005798 -2.4704666 -1.0781846 43.5
-4.0161896 -2.5149155 -1.0659485 37.142857
9.6094055 -2.5577316 -0.18966579 48.75
9.6435699 -2.4825287 -0.17573166 49
-6.1320801 -2.4964294 -0.79123259 51.666668
-5.9345245 -2.4989166 -0.78927755 51
-5.4615326 -2.482811 -0.90630484 47.25
-3.9356537 -2.5005722 -0.67238998 48
9.5923767 -2.5588913 0.18187809 53.666668
9.6056976 -2.5630722 0.20283937 54
-6.0617523 -2.4828186 -0.63695431 54.333332
-5.9359741 -2.4857407 -0.62706757 54.400002
-5.4451599 -2.4468079 -0.53044891 55.5
-3.9008331 -2.6446304 -0.56098461 51.5
-3.8602905 -2.6307678 -0.3791666 56.5
9.6391449 -2.5172958 0.3847518 56.5
-6.0078278 -2.4884491 -0.36988115 60
-5.8783112 -2.5163574 -0.39916134 59
-3.9205017 -2.5527954 -0.22425175 61
-3.8510437 -2.6487732 -0.31781006 58
9.5648193 -2.5824661 0.62872982 60
9.6161804 -2.5449677 0.63365269 60
9.6309814 -2.6177216 0.81462812 62
-3.8229523 -2.9246826 -1.8474936 18
-3.664917 -2.8232346 -1.850163 16.200001
-3.3568268 -2.7889175 -1.8315001 13.5
-3.0332794 -2.788559 -1.8353286 10.5
-2.7863922 -2.8015823 -1.8391852 8.166667
-2.4896545 -2.8194351 -1.8694949 4.4000001
-1.3649597 -2.9078217 -1.926157 3
2.5395966 -2.817276 -1.4611869 7.6666665
-4.1733246 -2.7018051 -1.6353073 24.5
-3.9707184 -2.8039703 -1.6321354 23.571428
2.3968353 -2.8139725 -1.1586103 16.5
2.5479279 -2.8392868 -1.4183311 9
-7.4057312 -2.6781235 -1.4972892 42
-4.0282288 -2.7808151 -1.4156909 29.166666
2.4487762 -2.6914825 -0.88393497 25
2.5080261 -2.7198105 -0.86367798 26
-7.3836517 -2.6740417 -1.3676586 44.5
-4.015213 -2.8651581 -1.1190281 37
2.4916687 -2.8682175 -0.79069233 29.5
9.6099548 -2.8126526 -0.25897217 48
9.6423035 -2.7414551 -0.13953257 49.5
-3.9425354 -2.7310333 -0.69651937 48
9.5922394 -2.8517456 0.14615345 53.333332
9.6107178 -2.854599 0.16770172 53.666668
-3.8972626 -2.6882401 -0.53595829 52
-3.8574677 -2.8706131 -0.4858942 53.833332
9.6437988 -2.8176041 0.37251043 56.5
-3.8524628 -2.869278 -0.24467468 60.5
9.5678406 -2.9089813 0.61749649 60
9.6195984 -2.8295441 0.62408257 60
9.6366119 -2.9279099 0.80591583 62
-3.8881226 -3.1113434 -1.848505 19.333334
-3.6397858 -3.0976639 -1.8481541 17.6
-3.370697 -3.1607819 -1.8489876 16
-3.0230103 -3.0729828 -1.8378592 12.5
-2.7284088 -3.082901 -1.8404584 10.142858
-2.463501 -3.1142731 -1.8426633 8.1428576
2.7537537 -3.2151566 -1.7108893 6
-3.9696655 -3.035675 -1.6632452 23.888889
-4.1357422 -3.0836105 -1.4603434 30
-4.0122833 -3.1991806 -1.3730507 31.75
-4.0139771 -3.0701218 -1.1240973 37.599998
9.6122894 -3.1700516 -0.31804371 47.5
-3.8567352 -3.1050262 -0.64266539 50
9.5957642 -3.1240005 0.14398098 53.5
9.6123352 -3.1213379 0.14418697 53.5
-3.8951874 -3.1703873 -0.53168631 53
-3.8570557 -3.1516113 -0.43996286 55.400002
9.6181793 -3.1416473 0.35595942 56.5
-3.8704224 -3.1649094 -0.23565578 61
9.5728912 -3.197197 0.60810804 60
9.623764 -3.1349792 0.61367321 60
9.6356812 -3.1598282 0.79912233 62
-3.9169312 -3.3292999 -1.8717275 20
-3.6278687 -3.3787384 -1.8503256 19
-3.3673096 -3.3927689 -1.8474493 17.5
-3.0831604 -3.4245758 -1.8482108 15.75
-2.7128754 -3.4320602 -1.8466258 12.666667
-2.4218292 -3.3712769 -1.8496022 10.2
-2.2180328 -3.4225998 -1.8445554 9.333333
-1.9029083 -3.4794312 -1.8334565 8
2.408905 -3.4590149 -1.6728697 7.5
2.5657806 -3.4047852 -1.6329074 8.833333
-3.9486389 -3.4601288 -1.725843 24.5
2.4908752 -3.4410934 -1.3153853 17.5
-3.9920349 -3.2851486 -1.487896 29.5
2.4490967 -3.4254761 -1.0708561 24
2.4841766 -3.4192657 -1.1123691 23
9.6282959 -3.2925034 -0.39075089 47
-3.8981934 -3.3881454 -0.67718458 50
9.5974121 -3.4053879 0.097006798 53
9.6159973 -3.4208145 0.12906981 53.5
-3.9012909 -3.4291229 -0.56459379 52.57143
-3.8700256 -3.3127747 -0.3602109 58
9.6234894 -3.4314194 0.34606409 56.333332
-3.8986511 -3.5373077 -0.28071785 60
-3.8749542 -3.4093018 -0.24640179 60.875
9.6014557 -3.446312 0.56883621 59.5
-3.5984802 -3.6959076 -1.8704081 20
-3.3113708 -3.6899643 -1.845912 19
-3.1128693 -3.6910172 -1.8547707 17.6
-2.7197876 -3.6948929 -1.8511281 14.5
-2.473175 -3.677063 -1.8481779 12.833333
-2.1481934 -3.718689 -1.8519611 11.4
-1.975174 -3.7847977 -1.8576937 11
-1.4787292 -3.780899 -1.9239721 6
1.5159149 -3.75177 -1.7500606 5.5
1.7134094 -3.7399979 -1.7431779 5.75
2.0727997 -3.7091217 -1.7268667 7.1999998
2.3346405 -3.6718597 -1.7189741 8
2.5274811 -3.6398621 -1.7176738 8.5
-4.2872162 -3.82341 -1.8751116 25
-3.9734344 -3.7109909 -1.6721849 27
2.5559387 -3.7412109 -1.301682 20.5
-4.0247803 -3.6506805 -1.3760896 33.666668
2.4931641 -3.7672882 -0.99460793 28.5
-4.0294952 -3.6916351 -1.1154928 40
-3.9960327 -3.6854019 -0.79355335 47.42857
9.6156158 -3.6588974 0.11684704 53.5
-3.9430542 -3.723938 -0.5862751 52.666668
9.630127 -3.6643982 0.33625793 56.333332
9.6166992 -3.6765594 0.52884054 59
-3.3058777 -3.9814453 -1.8694434 20
-2.9957733 -3.9849472 -1.8480453 19
-2.7763367 -4.0260925 -1.8598356 17.6
-2.4828644 -4.0321808 -1.8639708 15.2
-2.1514282 -4.0027466 -1.8485532 13.6
-1.8620911 -3.9717331 -1.8895445 10.8
-1.5453033 -3.9727325 -1.925456 8
-1.2765808 -4.0484924 -1.9074807 8
-1.0832062 -4.0972443 -1.8961029 8
1.276001 -3.950058 -1.7441978 7
1.3859253 -4.0120621 -1.7539787 7.6666665
1.6811829 -3.9182816 -1.743691 7.6666665
2.0374603 -4.00914 -1.7376995 10
2.3049469 -3.9755707 -1.7279382 10.5
2.5954437 -4.0621033 -1.7173109 12.5
-4.2973022 -3.9730148 -1.8596444 26
-3.9976807 -4.002594 -1.7448196 27
-3.5887756 -4.0916519 -1.851203 23
2.5145569 -3.9078751 -1.2002683 24
-4.0409546 -3.976799 -1.456737 33.25
-4.0388184 -4.1279068 -1.1211333 41
10.015182 -4.0283051 -0.23923874 49.25
-3.9610443 -4.0387421 -0.75028229 49.285713
9.9658203 -4.0674973 0.068421364 53
-3.9521942 -4.0254517 -0.52586889 54.444443
7.4165192 -4.1355896 0.29849625 58
7.4971466 -4.0051498 0.30746126 58
9.962204 -4.0716171 0.26512337 55.5
-3.9230499 -4.0185623 -0.34079266 59
7.4225616 -4.0890808 0.44172573 59.666668
7.4853668 -4.0102997 0.4118228 59
-3.3933563 -4.3056641 -1.859097 23
-3.0835419 -4.3100357 -1.870811 20.666666
-2.7300568 -4.3121872 -1.8646564 19.333334
-2.3925018 -4.291069 -1.8662233 16.799999
-2.1310425 -4.3160706 -1.878468 15.333333
-1.8759003 -4.2852249 -1.8879299 13.8
-1.5681305 -4.347435 -1.9271393 12.333333
-1.2542572 -4.3306427 -1.915451 10.8
-1.0088348 -4.2959442 -1.9044394 9.666667
0.81665039 -4.4143677 -1.7787232 11
1.1135101 -4.3581467 -1.7654471 11
1.4520264 -4.332756 -1.7575808 11.333333
1.7515564 -4.3143311 -1.7491817 11.8
2.0550842 -4.3063736 -1.7385249 12.5
2.3559723 -4.270401 -1.7324142 13
2.7195129 -4.3351059 -1.734436 14.333333
-4.0216522 -4.2274551 -1.6327786 30.5
-3.753418 -4.3546753 -1.8627429 24
-4.0103149 -4.3237457 -1.454236 34.57143
-4.0497437 -4.2919083 -1.1523619 40.799999
10.095825 -4.2091827 -0.26857567 49
-3.9804688 -4.3384399 -0.75425911 50
-3.9491577 -4.3172455 -0.53167105 54.777779
7.4088593 -4.2832489 0.29113626 58
-3.9226685 -4.3281097 -0.28462982 60.42857
-3.8989868 -4.3806839 -0.21800756 62
7.4048157 -4.2707596 0.39804173 59
-3.3583374 -4.6198807 -1.8672633 23.5
-3.0762482 -4.5597076 -1.8621945 22
-2.7747955 -4.6003876 -1.8650866 21
-2.5325928 -4.6575851 -1.8721681 20.333334
-2.0976105 -4.5218811 -1.8660808 17
-1.8323364 -4.5240326 -1.9245772 14.666667
-1.511734 -4.5466614 -1.92203 13.75
-1.223999 -4.5785599 -1.9115314 13.333333
-0.90641785 -4.6545029 -1.8907142 13.5
-0.60635376 -4.6271591 -1.8721819 12.5
-0.39717102 -4.5141373 -1.8578043 11
-0.080322266 -4.5184631 -1.8381987 11
0.29400635 -4.5843124 -1.8083096 12.2
0.59034729 -4.5127945 -1.7919893 11.5
0.8684845 -4.6110535 -1.7733903 12.666667
1.1563568 -4.516716 -1.7672753 12.25
1.4048767 -4.5518188 -1.7516775 13
1.7257538 -4.6021042 -1.7620635 13.6
2.0852356 -4.6167374 -1.7555718 14.5
2.3882141 -4.5652695 -1.7409997 15
2.6053925 -4.5455551 -1.7343364 15.5
2.8182831 -4.5375366 -1.7284122 16
-3.9806519 -4.62677 -1.7136612 30
-3.5602112 -4.5510406 -1.8667498 24
-3.9991608 -4.6105957 -1.4500093 35.333332
-4.0240936 -4.4923859 -1.2477536 39.5
-3.9904938 -4.667244 -0.73795891 50.599998
-3.9273834 -4.6358109 -0.50256968 55.75
-3.9364929 -4.5397568 -0.29341364 60.200001
-3.0547333 -4.8976898 -1.8677211 23.666666
-2.794342 -4.8899002 -1.8638191 22.666666
-2.4742889 -4.9159698 -1.8585715 21.666666
-2.1542664 -4.9075546 -1.8695326 20.5
-1.7514191 -4.8802948 -1.947937 16.666666
-1.5392761 -4.9024734 -1.9414449 16.25
-1.2563782 -4.8914795 -1.9289351 15.6
-0.91227722 -4.9379578 -1.9069114 15.5
-0.60725403 -4.9044342 -1.8845167 15
-0.31472778 -4.9381104 -1.8641138 15.2
-0.04637146 -4.863533 -1.8383889 14.75
0.21357727 -4.9665146 -1.8327589 15.5
0.48168945 -4.9431915 -1.8166442 15.5
0.8508606 -4.8435059 -1.797832 14
1.1438446 -4.8832779 -1.7863846 15
1.4500732 -4.8509064 -1.7726998 15.25
1.7461243 -4.8690109 -1.7617211 15.666667
2.0411072 -4.8335037 -1.7516484 16
2.7696075 -4.9838333 -1.7468534 19
3.0274506 -4.9673843 -1.7360606 19.5
-3.9813385 -4.8965607 -1.7627082 30
-3.6579895 -4.9402771 -1.8672523 27
-3.9815369 -4.9102936 -1.4320769 36.5
-4.0236206 -4.8904572 -1.1681552 42.25
-3.96492 -4.9376221 -0.77821016 50
-3.909256 -5.0008316 -0.55131054 55.166668
-3.9142609 -5.009346 -0.3700161 58.75
-2.6811829 -5.158287 -1.8682041 23.666666
-2.3897858 -5.1989365 -1.8652258 23
-2.1530609 -5.1692734 -1.8632569 22
-1.8800354 -5.1626816 -1.8953385 20.333334
-1.6233673 -5.1137161 -1.9431105 18
-1.2592621 -5.1504211 -1.921104 17.666666
-0.98074341 -5.174675 -1.903337 17.5
-0.68527222 -5.2133331 -1.8869081 17.5
-0.3112793 -5.2303238 -1.8620667 17.5
-0.031677246 -5.2558517 -1.845871 17.666666
0.19902039 -5.2202606 -1.8300004 17.5
0.51831055 -5.1897583 -1.8098536 17.5
0.86891174 -5.1274796 -1.7890563 17.4
1.182785 -5.1730423 -1.779705 18
1.4658051 -5.1289444 -1.7722931 18
1.8181915 -5.2876129 -1.7761803 19
2.0193634 -5.2547989 -1.775866 19
2.3234253 -5.1962433 -1.7560644 19.333334
2.5843201 -5.1722565 -1.74786 19.666666
2.9357605 -5.1793518 -1.7345996 20.333334
3.1538239 -5.2348862 -1.7213578 21
-3.9123535 -5.195076 -1.7160602 32
-3.605423 -5.2708435 -1.8724346 28
-3.4231262 -5.1545944 -1.8717899 27
-3.1852264 -5.3338547 -1.8709683 27
-3.9875946 -5.1850891 -1.4697218 36.5
-4.0522003 -5.2028732 -1.155992 43.200001
-3.9749146 -5.1702728 -0.7847085 50.5
-3.915741 -5.237709 -0.51830387 56
-3.0014496 -5.455368 -1.868278 27
-2.8141174 -5.5738602 -1.8662705 27
-2.3887787 -5.411232 -1.8706222 24
-2.0754089 -5.5288162 -1.8739934 23.666666
-1.8694458 -5.3569183 -1.8698077 22
-1.5646973 -5.5140991 -1.9486127 21
-1.2526245 -5.5878601 -1.9330182 21
-0.67333984 -5.509079 -1.903862 19
-0.33572388 -5.5241852 -1.8821173 19
-0.041320801 -5.52211 -1.8621082 19
0.30155945 -5.5064087 -1.8413677 19
0.56678772 -5.4717026 -1.8219023 19
0.83297729 -5.4478302 -1.8099084 19
1.1244202 -5.4091263 -1.7976432 19
1.4197388 -5.3767624 -1.7913547 19
1.6187439 -5.3489609 -1.7888331 19
2.0527039 -5.4671783 -1.7611079 20.333334
2.340683 -5.5257111 -1.746129 21
2.6598053 -5.5164032 -1.7405877 21.5
2.8970642 -5.4770355 -1.7393332 21.666666
3.3121185 -5.5065918 -1.7334027 22.5
-3.8954773 -5.4332504 -1.8997154 29
-3.3210602 -5.4902191 -1.8713508 28
-3.1438599 -5.6032257 -1.8672729 28
-3.9687042 -5.3993378 -1.5053606 36.5
-4.0451202 -5.4268723 -1.1817374 43.400002
-4.019104 -5.5731659 -0.891397 49.222221
-3.9316406 -5.634346 -0.58236647 55
-2.6587982 -5.7982407 -1.8674221 27.5
-2.3933411 -5.8303833 -1.8674188 27
-2.1052094 -5.9114456 -1.8825035 26
-1.7923889 -5.7378006 -1.9318614 23
-1.5172882 -5.795578 -1.9405022 22.5
-1.2724457 -5.7738724 -1.9250035 22
-0.91947937 -5.7053604 -1.911376 21
-0.71365356 -5.7736359 -1.8905277 21.666666
-0.36300659 -5.8474808 -1.8627009 22
-0.072769165 -5.8611679 -1.8487048 22
0.25991821 -5.8375778 -1.8248916 22
0.56686401 -5.8075485 -1.8046908 22
0.88026428 -5.827034 -1.790534 22.333334
2.1130829 -5.7801056 -1.7672286 22
2.4242554 -5.8142853 -1.7600641 22.5
2.5861816 -5.7697067 -1.7554874 22.5
2.9356232 -5.7875824 -1.751452 23
3.2076416 -5.6800079 -1.7408576 23
3.6210785 -5.9328232 -1.7025766 26
-3.9258423 -5.7625198 -1.7427769 33.333332
-3.5934448 -5.7794495 -1.8947792 29.5
-3.3598938 -5.8583755 -1.9003415 29
-3.0074768 -5.694397 -1.8659654 28
-2.8215485 -5.8127136 -1.8655348 28
-3.9799652 -5.7855988 -1.5160427 37.5
-4.0530701 -5.6844406 -1.2406073 43
-3.8885651 -5.8733139 -0.44651031 58
-3.9156647 -5.8739243 -0.27927923 61
-3.8854065 -5.8798447 -0.29065943 60.666668
-3.2194824 -5.9590302 -1.8995967 29
-3.053421 -6.0771713 -1.9016161 29
-2.5020752 -6.0280838 -1.8716598 28
-2.2261505 -6.1967163 -1.8763924 28
-1.7989655 -6.00634 -1.9599094 24
-1.5184937 -6.0961685 -1.951756 24
-1.2417297 -6.0801849 -1.9345298 23.666666
-0.90830994 -6.0903168 -1.913486 23.5
-0.60308838 -6.1190567 -1.8951821 23.5
-0.38609314 -6.1182251 -1.8779073 23.5
-0.073913574 -6.120842 -1.8585696 23.5
0.28163147 -6.1052856 -1.8361168 23.5
0.58666992 -6.0823517 -1.8178811 23.5
0.8568573 -6.0940704 -1.8057694 23.666666
1.1600647 -6.144104 -1.7978816 24
1.3828735 -6.1264191 -1.7927136 24
1.7558136 -6.0816269 -1.7846718 24
1.9995422 -6.0445633 -1.7794294 24
2.328476 -6.2115326 -1.780961 25
3.0094147 -6.2345734 -1.7412467 26
3.2421265 -6.1461487 -1.731658 26
3.5393982 -6.1278152 -1.7211947 26.333334
3.7316589 -6.1265564 -1.6849704 27
-3.9570923 -6.0526047 -1.6840978 35.5
-3.3009033 -6.1027908 -1.8919001 30
-3.9840698 -6.0723038 -1.5246682 38.200001
-4.0254974 -6.210228 -1.2337632 44
-4.024704 -6.1466751 -0.92545891 49.5
-3.9089813 -6.1813049 -0.55783272 56
-3.8847351 -6.1101761 -0.46077442 58
-3.9073639 -6.1110535 -0.38229227 59
-3.8765106 -6.201683 -0.32591486 60.200001
-2.9749451 -6.3310928 -1.8946233 30
-2.7086792 -6.3936081 -1.8980956 29.5
-2.4315643 -6.4553146 -1.9031334 29
-2.0193939 -6.2892227 -1.873322 28
-1.8045502 -6.3346024 -1.9542551 26
-1.5218658 -6.3558884 -1.9734588 25
-1.2085724 -6.4197769 -1.9574313 25
-0.98252869 -6.4406967 -1.9408126 25
-0.67320251 -6.4639435 -1.9204354 25
-0.4190979 -6.4782715 -1.9046397 25
-0.092346191 -6.4742508 -1.8823056 25
0.2802124 -6.4639282 -1.8602214 25
0.61985779 -6.4361572 -1.8393254 25
0.87745667 -6.4144669 -1.8263912 25
1.2012634 -6.3937149 -1.816452 25
1.5102844 -6.4545593 -1.7960095 25.5
1.7386169 -6.3981628 -1.7942543 25.333334
2.0662079 -6.4043808 -1.7769127 25.666666
2.4065247 -6.3769989 -1.7536922 26
2.6729889 -6.3069458 -1.7446394 26
3.000946 -6.525032 -1.7435851 27
3.2805634 -6.4397354 -1.7354779 27
3.572113 -6.368782 -1.7346144 27
3.9140015 -6.4637375 -1.699646 28
-3.9558563 -6.4135284 -1.7367768 35.799999
-3.9707184 -6.3811264 -1.5767455 38.200001
-4.0290375 -6.298317 -1.1352959 46
-4.0221252 -6.3750458 -0.89038372 50.42857
-3.8991852 -6.4971695 -0.59941101 55.5
-3.9011841 -6.5437622 -0.42307806 58.5
-2.491394 -6.6168442 -1.8947682 30
-2.1287994 -6.6853943 -1.9029508 29.333334
-1.8045044 -6.7364273 -1.9449663 28.333334
-1.6074524 -6.7692032 -1.9560614 28
-1.2748108 -6.5839462 -1.9384975 26
-1.008728 -6.6079178 -1.9182782 26
-0.69180298 -6.6385574 -1.8996782 26
-0.43118286 -6.6543884 -1.8840299 26
-0.1013031 -6.6602478 -1.8643227 26
0.27633667 -6.6419754 -1.8391585 26
0.62519836 -6.6147232 -1.8177109 26
0.88671875 -6.5891495 -1.8036532 26
1.1995544 -6.6979523 -1.7938032 26.5
1.4537811 -6.7132339 -1.7842555 26.666666
1.7669373 -6.7744141 -1.7780914 27
2.1067352 -6.7176666 -1.7664833 27
2.3846893 -6.6625671 -1.7577071 27
2.6274719 -6.6082458 -1.7501068 27
2.8109283 -6.5674744 -1.7465734 27
3.3615417 -6.8381958 -1.759613 28
3.5615387 -6.7818375 -1.7555552 28
3.8309937 -6.6794128 -1.7024803 28.666666
4.3921509 -6.7872543 -1.6558828 2
-3.9456482 -6.6618729 -1.7718058 36
-3.9785614 -6.700325 -1.516706 40.166668
-4.004425 -6.7812424 -1.2061028 45.666668
-4.0219269 -6.6954193 -0.90689659 50.5
-3.9055176 -6.616951 -0.58839703 56
-3.8769531 -6.651535 -0.35606861 60
-2.0093231 -6.8794785 -1.8989825 30
2.1773682 -7.1034241 -1.7926316 28
2.3746948 -7.0705032 -1.7869978 28
2.6728058 -7.0186386 -1.7805882 28
2.9698334 -6.9528427 -1.7722874 28
3.186142 -7.0195541 -1.7649288 28.5
3.5298462 -7.0254288 -1.7485423 29
3.9429779 -7.0571442 -1.7029033 30
4.1299286 -6.9496231 -1.6879692 30
-3.9361725 -6.9806747 -1.8104944 36.333332
-3.9834442 -6.9183121 -1.5158801 40.75
-3.9053192 -7.0147018 -0.66585112 55
-1.7527466 -7.2594604 -1.9989438 29.5
-1.5360565 -7.3286209 -1.9834466 29.666666
-1.2730255 -7.2211456 -1.9696455 29
-0.9838562 -7.2530594 -1.9512625 29
-0.69865417 -7.2744446 -1.9330263 29
-0.30633545 -7.2868042 -1.9079442 29
-0.020065308 -7.2703705 -1.8854012 29
0.17045593 -7.2764282 -1.8769536 29
0.51834106 -7.2431717 -1.8520927 29
0.89950562 -7.2126999 -1.8310471 29
1.1412811 -7.3106689 -1.8206697 29
1.486969 -7.1868515 -1.8135514 28
1.7728119 -7.313591 -1.8034782 28.666666
2.0488434 -7.2805939 -1.795527 28.666666
2.3834839 -7.2972031 -1.782239 29
2.6583405 -7.2569656 -1.7764554 29
3.0016937 -7.1909561 -1.7689781 29
3.3979187 -7.4353485 -1.7685766 30
3.6290894 -7.4001999 -1.7682905 30
3.7592316 -7.1725693 -1.7209034 30
-3.9399109 -7.2705002 -1.8030887 37.200001
-3.9807892 -7.3766861 -1.5471849 41.25
-4.0173035 -7.3210144 -1.2352953 46
-3.9974518 -7.3402634 -1.0490694 49
-1.4658661 -7.7017212 -1.9834027 31
-1.2535095 -7.5909119 -1.9683647 30.5
-0.88981628 -7.4785995 -1.9413176 30
-0.61691284 -7.4902496 -1.9225063 30
-0.36129761 -7.4999237 -1.9066906 30
-0.07321167 -7.4904175 -1.8860078 30
0.30975342 -7.4777527 -1.8624239 30
0.57090759 -7.4622803 -1.8469477 30
0.83320618 -7.4453049 -1.8333545 30
1.7612915 -7.7039108 -1.8124394 30
2.0779419 -7.6745605 -1.8036132 30
2.3877869 -7.607872 -1.7889819 30
2.6042633 -7.5874023 -1.7860756 30
2.9297485 -7.5452423 -1.7817945 30
3.178009 -7.4893799 -1.7737865 30
3.9906006 -7.7296295 -1.7018981 33
4.186264 -7.6429062 -1.690599 33
4.4824219 -7.5164566 -1.6760926 32.666668
-3.9908447 -7.7307968 -1.521543 42.5
-3.9945526 -7.7532501 -1.368135 45
-1.1942291 -7.7480927 -1.969111 31
-0.9874115 -7.7728424 -1.9572167 31
-0.69953918 -7.7876282 -1.937747 31
-0.34121704 -7.7974854 -1.9146757 31
3.8232422 -7.8064728 -1.7133141 33
5.4342041 -8.0138397 -1.6229849 35
5.5154572 -7.9387589 -1.6125665 35
-3.9858246 -7.951828 -1.5557799 42.5
-3.9978943 -7.9704056 -1.4004998 45
-1.1793518 -8.0569153 -1.9788094 32
-0.98532104 -8.075676 -1.9666915 32
-0.68670654 -8.0894394 -1.9462934 32
-0.29936218 -8.1033401 -1.9223123 32
-0.016052246 -8.0969696 -1.9034233 32
5.040451 -8.2588806 -1.6537466 35
5.2734985 -8.1331406 -1.6387944 35
-3.9867706 -8.2258759 -1.7189131 41
-4.0010071 -8.1603165 -1.6073785 42.25
-4.000946 -8.3523483 -1.3450055 46
4.4904022 -8.5239258 -1.6883845 35
4.7136383 -8.4104919 -1.6723576 35
5.1287537 -8.5973358 -1.6460948 36
5.4086304 -8.4418106 -1.6266737 36
5.9269562 -8.6251907 -1.5849423 37
7.2725372 -8.6210098 -1.5263643 38
7.3301392 -8.6054306 -1.5263247 38
-3.9654388 -8.6156006 -1.7834654 41
-3.9591064 -8.6493988 -1.6759238 42
-4.005661 -8.4017868 -1.2316322 48
-4.0022888 -8.4173889 -1.0645342 50
4.55336 -8.8843231 -1.6853695 36
4.739151 -8.796051 -1.6730247 36
4.9737701 -8.6758652 -1.6560659 36
5.6419983 -8.8131638 -1.6085258 37
6.831192 -8.8600159 -1.5471973 38
7.0932312 -8.7153397 -1.5337987 38
18.242294 -8.9310608 -0.37228107 50
-3.9842987 -8.6836243 -1.5516119 44
13.728867 -8.980072 -0.57539034 49
18.198151 -8.9525757 -0.17722082 51.5
-3.9980011 -8.6718063 -1.3255215 47
12.170578 -8.9848557 -0.3940506 51
12.789505 -8.9851456 -0.32529116 51.333332
13.150848 -8.979454 -0.19003296 52
13.653748 -8.9841843 -0.13032436 52.5
13.998154 -8.9807281 -0.12440586 52.5
14.126862 -8.9478683 -0.066285133 53
17.980713 -8.9560013 0.0027046204 53
18.246811 -8.9472275 0.0083975792 53
9.3373871 -8.981926 -0.15045261 53.5
13.071396 -8.9987488 0.0019173622 54
13.601318 -8.9915619 0.015310764 54
13.961334 -8.9838333 0.23450994 55
14.114258 -8.9862213 0.028103352 54
17.844116 -8.9750595 0.38800764 55.200001
18.171814 -8.9645538 0.37377071 55
12.139511 -9.0058441 0.30805779 57
12.52211 -9.0035553 0.32422304 57
12.867508 -9.0053406 0.48231268 58
17.664505 -8.9685593 0.58221817 57
17.78096 -8.9544678 0.6814189 57.666668
18.173782 -8.9776306 0.67553377 57.5
18.322906 -8.9405594 0.75610876 58
20.250092 -8.886261 0.85252333 57
10.917587 -9.0029068 0.47234058 59
11.347672 -9.002739 0.49587011 59
11.751129 -9.0107803 0.51816559 59
12.165421 -8.9978638 0.54197264 59
12.474289 -9.0011902 0.55875301 59
12.634964 -8.9975739 0.56745052 59
14.893478 -9.0019226 0.69169378 59
14.976288 -8.9608688 0.89359999 60
17.66243 -8.9800186 0.97266579 59
18.233688 -8.9862671 1.0067501 59
18.258286 -8.9378357 1.1060591 60
19.948151 -9.0143204 1.2130075 60
20.236694 -8.8951187 1.0597482 58.5
11.546005 -9.0234222 0.8512702 62
11.740341 -9.0272827 0.8661437 62
12.120621 -9.0182495 0.89416122 62
12.408173 -9.0224838 0.91552782 62
12.765076 -9.0085144 0.94201231 62
14.916489 -8.9937134 1.0577593 61.5
15.021683 -9.0090561 1.0647631 61.5
18.272324 -8.9757233 1.2500558 61
14.885025 -9.0176926 1.2339764 63
14.969727 -9.0053482 1.2416077 63
18.211411 -8.9750977 1.6041794 63
18.24028 -8.969986 1.5098948 62
4.1545868 -9.0814285 -1.7167344 36
4.3807983 -8.9611664 -1.6970572 36
5.0843811 -9.1479263 -1.6537247 37
5.3442535 -9.0237198 -1.6373811 37
6.0503693 -9.2367935 -1.5840025 38
6.287674 -9.1210556 -1.5716181 38
6.5760345 -8.9804077 -1.5575919 38
11.786499 -8.9951324 -0.84009838 47
20.543167 -9.1394196 -0.38620186 50
9.2759399 -9.1157913 -0.69759607 48.5
11.862122 -9.0190125 -0.56755352 49
13.292709 -9.0343552 -0.47123861 50
13.744308 -9.0281677 -0.470397 50
14.09079 -9.0368118 -0.47067165 50
20.604309 -9.1343231 -0.099411011 52
9.1834564 -9.169014 -0.42812109 51
9.7549591 -9.0635071 -0.32706356 52
10.045822 -9.0312805 -0.36760855 51.5
10.454636 -9.0375671 -0.33871508 51.75
10.765488 -9.0326462 -0.34243822 51.666668
11.003494 -9.0229111 -0.35526228 51.5
11.201721 -9.0245819 -0.35311174 51.5
11.637726 -9.0180588 -0.34805536 51.5
11.982956 -9.0167694 -0.34475517 51.5
12.197617 -9.0062866 -0.34194851 51.5
12.469086 -8.9950867 -0.26558065 51.666668
13.111893 -9.0047455 -0.1842308 52
13.299362 -9.004097 -0.20688725 51.75
13.651016 -9.0094223 -0.2723937 51
13.996811 -9.0023193 -0.26861286 51
8.9829559 -9.2346878 -0.20424128 53.5
9.0911713 -9.1120148 -0.13431263 54
9.3071899 -9.0286789 -0.02375555 55
9.7474976 -9.0777893 -0.09157896 54
10.013184 -9.0415344 -0.070282459 54.142857
10.410782 -9.0304413 -0.069785595 54
10.689438 -9.0327911 -0.062224865 54
10.953476 -9.029892 -0.075596809 53.75
11.186508 -9.0383072 0.0079655647 54.666668
11.604218 -9.0203018 -0.054029942 53.799999
11.944809 -9.0212402 -0.027732372 54
12.134689 -9.0154877 -0.022387505 54
12.459717 -9.0193329 0.0015134811 54.166668
12.770233 -9.015274 -0.0059232712 54
13.06752 -9.0190048 0.09625721 55
13.303574 -9.017067 0.05475378 54.5
13.668243 -9.0158768 0.11405897 55
13.855301 -9.0053024 0.020524502 54
9.1124725 -9.0692291 -0.033054829 55
9.781311 -9.0184174 0.080988407 56
9.9737854 -9.0467224 0.13555193 56.599998
10.373352 -9.0439148 0.15209723 56.599998
10.729599 -9.027626 0.19531107 56.5
10.963058 -9.0293427 0.20439529 56.5
11.264679 -9.0185776 0.27884102 57
11.565079 -9.0207977 0.28776836 57
11.815918 -9.0224915 0.3077693 57
12.155136 -9.0192871 0.32279015 57
12.473541 -9.0211639 0.40745306 57.5
12.638657 -9.0142746 0.36064243 57
13.742188 -9.1497726 0.4140377 57
13.860779 -9.1620178 0.52555084 58
14.838196 -9.1209564 0.48463488 57.166668
20.16922 -9.0816269 0.84057236 57
9.7513123 -9.0253677 0.32350492 58
9.9348755 -9.0334702 0.37453413 58.5
10.27066 -9.0314255 0.39242601 58.5
10.603928 -9.0370483 0.4368577 58.799999
10.901535 -9.047287 0.47125912 59
11.291 -9.0617981 0.58470106 60
11.530594 -9.0374146 0.55265284 59.5
11.777832 -9.0605164 0.61377668 60
12.134705 -9.048172 0.63619375 60
12.4133 -9.0596771 0.65201473 60
12.73053 -9.0462799 0.6720233 60
13.794525 -9.1590347 0.62580776 59
14.79158 -9.1356888 0.68159866 59
19.950058 -9.09198 1.2106256 60
20.165344 -9.1240921 1.0474701 58.5
10.437286 -9.0488129 0.73394394 61.5
10.615555 -9.0515976 0.81827641 62.25
10.88472 -9.0471573 0.81438971 62
11.276093 -9.0457916 0.84325409 62
11.578873 -9.0409775 0.96701002 63
11.72403 -9.0448456 0.88328505 62
12.104614 -9.0368881 0.91149282 62
12.428085 -9.0364609 0.93568707 62
12.633728 -9.0345993 0.95161247 62
14.824387 -9.0995636 1.0932732 62
19.993896 -9.1024704 1.368371 61
20.012955 -9.0837555 1.6528354 62
20.05864 -9.1760254 1.7075701 62.5
4.5901489 -9.4007187 -1.6908751 37
4.7743988 -9.310173 -1.677063 37
5.6781311 -9.4410629 -1.6095352 38
5.9512482 -9.2906723 -1.5905008 38
6.3702545 -9.3862305 -1.4802437 40
6.4600067 -9.4571686 -1.4940424 40
-3.9305725 -9.4307709 -1.8577213 41
6.4771118 -9.4584732 -1.2614756 42.400002
-3.9660492 -9.4728851 -1.6562743 44
6.5444641 -9.5142212 -1.0796924 45
9.0631104 -9.413269 -0.71277142 48.666668
-3.9864197 -9.5586853 -1.3323669 48.333332
8.9788818 -9.4132385 -0.39785767 51.666668
9.074707 -9.429863 -0.4813652 50.666668
20.424881 -9.4749832 0.28034401 54
8.9314728 -9.4308929 -0.20871639 53.5
20.359756 -9.4828491 0.42643118 55
20.418594 -9.4655151 0.49653292 55.5
-3.8822632 -9.4584122 -0.73431301 56
-3.8807373 -9.4745331 -0.58037567 57.5
8.9966125 -9.3362579 0.033409119 56
9.7581482 -9.3816071 0.10145617 56.5
20.348618 -9.5200958 0.83253002 57
-3.8747253 -9.5283737 -0.4845295 59
9.743988 -9.3842392 0.43630838 59.5
-0.062347412 -9.6306152 -1.9215422 36
0.2820282 -9.6134796 -1.8984547 36
0.56239319 -9.5962753 -1.8807349 36
0.81799316 -9.5775223 -1.8648109 36
5.0906525 -9.7723999 -1.6564679 38
5.3591766 -9.6434326 -1.6379623 38
6.1541443 -9.7650299 -1.494051 40.5
7.8880615 -9.8425369 -1.5047059 41
8.0903168 -9.7097855 -1.4912009 41
8.2756195 -9.6119919 -1.4834261 41
-3.9566803 -9.7635498 -1.8115287 42.666668
6.1691589 -9.7207794 -1.313942 42
-3.9479828 -9.7407303 -1.6507053 44.5
6.5596008 -9.5740967 -0.93734503 46
-3.9962769 -9.5854111 -1.2185659 49.5
8.9723053 -9.6143265 -0.47623873 51
-4.0326996 -9.5808411 -1.1224113 51
-1.7416077 -10.018295 -2.0378599 37
-1.5708008 -10.036942 -2.0267487 37
-1.2927399 -10.066528 -2.0097184 37
-0.94456482 -10.099144 -1.9893875 37
-0.67021179 -10.111839 -1.9718642 37
-0.38796997 -10.118629 -1.9541473 37
-0.095809937 -10.113319 -1.9347582 37
0.24786377 -10.094025 -1.9110646 37
0.61027527 -10.070076 -1.8870139 37
0.86273193 -10.063927 -1.8742647 37
1.1223755 -10.073845 -1.865272 37
1.4460144 -10.094223 -1.8572001 37
1.7975159 -10.115921 -1.8500538 37
2.0065613 -10.124306 -1.8456759 37
2.3058014 -10.09523 -1.8326931 37
2.6444397 -10.068573 -1.8210182 37
4.4759827 -10.084099 -1.7062459 38
4.7030182 -9.9654388 -1.6863008 38
6.0498352 -9.9503555 -1.4800467 41
7.5354767 -10.011597 -1.3764973 42
7.6648407 -9.9638138 -1.4679823 41.333332
5.9976349 -9.9812317 -1.2751956 43
6.1177216 -9.955307 -1.3477206 42
7.5924225 -10.057838 -1.2952871 43
-3.9712524 -9.9416122 -1.6414704 45
5.9371796 -9.9781036 -1.1390357 45
-3.992569 -9.921051 -1.2555957 49.5
21.313736 -10.108467 0.27326679 54
-4.0056915 -9.9683838 -1.0334392 52.285713
21.277481 -10.063881 0.50068092 55.5
9.7781677 -9.962532 0.46307516 60
9.7183685 -10.016228 0.73227835 62.25
5.584671 -10.428215 -1.6363492 40
9.7801666 -10.310371 0.45133018 60
9.7263184 -10.293983 0.68340206 61.799999
-1.714859 -10.600182 -2.0450978 38
-1.4964142 -10.610298 -2.0286293 38
-1.1980743 -10.636703 -2.0100932 38
-0.89553833 -10.663628 -1.992619 38
-0.6075592 -10.678925 -1.9751544 38
-0.39608765 -10.68071 -1.9615059 38
-0.096511841 -10.671997 -1.9409771 38
0.10452271 -10.680229 -1.9311161 38
0.53790283 -10.643379 -1.9000745 38
0.90057373 -10.635933 -1.8810339 38
1.2078247 -10.648682 -1.8700714 38
1.5034943 -10.670044 -1.8625331 38
1.7151642 -10.686226 -1.8580956 38
2.0864716 -10.711937 -1.8509569 38
2.3275909 -10.692101 -1.8401327 38
2.8002625 -10.534714 -1.8910365 2
5.1187897 -10.681267 -1.6756864 40
5.3071442 -10.583145 -1.6601548 40
5.520401 -10.468529 -1.6426067 40
9.5335999 -10.787025 -0.12178421 55
9.7539825 -10.667374 -0.17596245 54.200001
9.7435303 -10.687653 0.13068151 57
9.7475433 -10.645615 0.36464357 59.200001
9.7343292 -10.668968 0.69838572 62
2.0665131 -10.925949 -1.9127722 2
2.2046967 -10.87265 -1.9116683 2
4.5210419 -11.006348 -1.7304697 40
4.787735 -10.861061 -1.7053638 40
4.9855042 -10.754242 -1.6875443 40
5.4236755 -11.022118 -1.6458621 41
5.6369476 -10.900658 -1.6274409 41
-3.9279938 -10.873558 -1.820715 44
2.9294739 -11.053467 -1.4609742 43
3.2711639 -11.007309 -1.3856869 44
3.6653595 -11.055153 -1.3837104 44
5.7193298 -10.933754 -1.4919949 42
-3.9340515 -10.872162 -1.6569791 46
2.9873505 -11.056534 -1.2596903 45.5
3.2500305 -11.00354 -1.2445054 45.5
3.6223297 -11.015541 -1.2359705 45.5
9.279007 -10.911217 -0.83106136 48.5
-3.9295349 -10.816551 -1.4520731 48
9.2667847 -10.855736 -0.56923151 51
9.2716064 -10.797859 -0.30093002 53
9.4147491 -10.865067 -0.18895864 54.333332
9.583374 -10.807495 -0.024895191 56
9.7881927 -11.101555 0.4253397 60
9.7260132 -11.089661 0.68351936 62
3.8993835 -11.313438 -1.7887292 40
4.107193 -11.214905 -1.7694249 40
4.3489838 -11.100967 -1.7476163 40
5.0624237 -11.2286 -1.679492 41
5.3098145 -11.080635 -1.6547589 41
2.7397461 -11.306953 -1.5174146 43
2.8665466 -11.117981 -1.443336 43.5
3.1237793 -11.073936 -1.4597163 43
3.6093292 -11.107567 -1.494854 42.5
3.6946411 -11.116287 -1.5362492 42
2.9099579 -11.11087 -1.2211957 46
3.2163239 -11.087639 -1.1108112 47
3.5406342 -11.102295 -1.1385417 46.5
9.1343689 -11.116425 -0.49758196 52
9.1855927 -11.187759 -0.24561787 54
9.2664185 -11.225632 -0.061920166 56
9.7474518 -11.134758 0.5981822 61
17.65889 -11.266464 1.1441736 61
17.647812 -11.314636 1.4622951 62.5
-1.7564392 -11.482193 -2.0779586 40
-1.5183868 -11.500099 -2.0621428 40
-1.2761688 -11.530731 -2.04914 40
-0.99534607 -11.555977 -2.0325985 40
-0.69577026 -11.562584 -2.0128284 40
-0.32148743 -11.567009 -1.9887257 40
-0.016601562 -11.560173 -1.9686642 40
0.28991699 -11.543671 -1.9479084 40
0.59570312 -11.521782 -1.9274263 40
0.90034485 -11.530006 -1.9138975 40
1.1216888 -11.538933 -1.9055061 40
2.5948792 -11.617195 -1.8671403 40
2.8103638 -11.615387 -1.8615546 40
4.4592438 -11.542252 -1.7343278 41
4.7319794 -11.404305 -1.7094326 41
17.681366 -11.611153 0.98735046 60
17.671326 -11.664352 1.134377 61
17.649155 -11.645981 1.4729204 62.666668
2.6260376 -11.706207 -1.7949271 41
3.9022064 -11.809738 -1.7864561 41
4.1739502 -11.666176 -1.7581697 41
5.6717834 -11.870476 -1.6040969 42.333332
2.5849304 -11.740753 -1.6647477 42
-1.7411041 -11.986229 -2.0821862 41
-1.4902344 -12.013809 -2.0673146 41
-1.2028351 -12.034668 -2.0492306 41
-0.90003967 -12.049858 -2.0301127 41
-0.61668396 -12.052521 -2.0108285 41
-0.48773193 -12.059418 -2.0031362 41
4.785202 -12.214264 -1.6948652 42
5.0562439 -12.10466 -1.6753449 42
5.2982178 -12.015274 -1.6593332 42
6.8345184 -12.13044 -1.0494227 48
-3.9398499 -12.00473 -1.3713436 50.25
-3.9213257 -12.066399 -1.1820083 52.5
4.528244 -12.302582 -1.7122283 42
4.6472168 -12.264503 -1.7041774 42
6.6750031 -12.490608 -1.2026887 47
6.6227417 -12.555504 -1.1197886 48
6.7335205 -12.53373 -1.0311909 48.5
9.969101 -12.566544 -0.98804712 48
9.7631226 -12.477318 -0.47344351 52.333332
9.7945557 -12.524704 -0.25183058 54.666668
9.8064117 -12.596786 -0.021698952 56
5.6706238 -12.669449 -1.4191809 45
9.8345642 -12.6371 -1.2354918 46.599998
5.6604614 -12.814178 -1.260458 47
9.8414001 -12.653435 -0.99772358 48
-1.7380371 -12.999664 -2.1128864 42
-1.5067749 -13.002831 -2.0958529 42
-1.1810913 -13.017639 -2.0741663 42
-0.88821411 -13.034302 -2.056325 42
-0.58909607 -13.035545 -2.0363917 42
-0.38409424 -13.030037 -2.021719 42
-0.10400391 -13.01931 -2.0027909 42
0.27832031 -13.007431 -1.9781418 42
0.59103394 -12.990166 -1.9575191 42
0.81681824 -12.981339 -1.9443631 42
-1.8053131 -13.016624 -2.0278502 43
5.5791168 -12.870926 -1.1782098 48
9.772583 -12.96566 -0.4927845 52.5
9.7928314 -12.99855 -0.29862833 54.5
9.8094788 -13.115509 -0.049015045 56
9.7781677 -13.312866 -0.46554756 53
3.8966064 -13.297043 -0.56930494 54.5
3.9580841 -13.261803 -0.7302804 52.5
9.7822571 -13.306328 -0.26627159 54.666668
9.7834625 -13.348343 0.060406685 57.25
9.7655029 -13.402908 0.24047947 59
9.7755737 -13.459602 0.64358139 62
10.359436 -13.513283 0.68404579 62
10.388123 -13.519119 0.80340958 63
-1.5535889 -13.535248 -2.0920415 43
-1.293396 -13.544228 -2.0745606 43
-0.91093445 -13.557404 -2.0497966 43
-0.5899353 -13.560684 -2.0285068 43
-0.31448364 -13.556587 -2.010325 43
0.00045776367 -13.549232 -1.9897618 43
0.27026367 -13.536804 -1.9718785 43
0.57675171 -13.522964 -1.9522958 43
0.89537048 -13.51786 -1.9346032 43
1.1821136 -13.542213 -1.9237819 43
9.7620544 -13.751305 0.12176847 58
9.7386475 -13.73365 0.22614861 59
10.257797 -13.528351 0.67628717 62
6.3087769 -13.834785 -1.0425935 49.5
9.7346649 -13.94664 -0.91871691 50
6.3157349 -13.884308 -0.92147017 51
6.3410797 -13.91304 -0.73288345 52
9.7405548 -13.875221 -0.59146547 52.200001
9.7511139 -13.877472 -0.30190516 54.5
9.7661285 -13.912186 -0.0087614059 56.857143
9.738678 -13.923065 0.21903658 59
-1.7390289 -14.150734 -2.1307492 44
-1.5197754 -14.126091 -2.1108451 44
-1.1974945 -14.124313 -2.0872087 44
-0.98007202 -14.134232 -2.0735722 44
-0.6806488 -14.137398 -2.0540686 44
-0.31924438 -14.127068 -2.0289807 44
-0.010513306 -14.120636 -2.0090485 44
0.18421936 -14.106461 -1.9953699 44
0.48025513 -14.088074 -1.9753246 44
0.87721252 -14.075829 -1.9519067 44
1.0982361 -14.090446 -1.9424257 44
6.0326691 -14.261482 -0.8698945 51.5
7.5674591 -14.193787 -0.65960503 52.5
9.7970123 -14.247124 -0.63854361 52
5.9334106 -14.295807 -0.59092999 54
6.0596161 -14.279327 -0.67434168 53
7.5863342 -14.237633 -0.46764326 54.5
9.7777863 -14.328522 -0.3292675 54.5
7.5727081 -14.297707 -0.19158459 56.333332
9.8061829 -14.343292 -0.04363966 56.666668
9.7814941 -14.419739 -0.60255289 52.5
9.7690582 -14.393364 -0.44433737 54
9.7834625 -14.549286 -0.027590752 57
9.7628021 -14.524086 0.19686794 59
9.4770355 -14.951309 -0.65302658 52.5
9.7798462 -14.851006 -0.61632347 52.666668
9.5046387 -14.976044 -0.38205194 54.5
9.7545319 -14.881958 -0.36569023 54.5
9.7818298 -14.797394 -0.032063961 57
5.7646484 -15.017342 -1.5288153 47
5.7636414 -15.078751 -1.3353925 48
5.8440704 -15.144836 -1.2463632 49
9.3910217 -15.086128 -0.60980463 53
9.3719788 -15.074265 -0.39357328 54.5
9.4901123 -15.228264 -0.07340765 57
9.7862701 -15.122002 -0.055678368 57
9.8248291 -15.272026 0.17178869 59
-1.495224 -15.417686 -2.1236191 45
-1.215744 -15.433449 -2.1061215 45
-1.0025482 -15.436562 -2.0921168 45
-0.69776917 -15.429039 -2.0707188 45
-0.41145325 -15.413818 -2.0500345 45
-0.098953247 -15.396362 -2.0280032 45
0.21936035 -15.382767 -2.006989 45
0.5136261 -15.38829 -1.9905767 45
0.87458801 -15.374329 -1.9685121 45
1.1862793 -15.373268 -1.95188 45
1.4644928 -15.415451 -1.9437523 45
6.1541595 -15.339142 -1.20296 49.5
6.1218109 -15.404701 -0.95596552 51
-1.7992859 -16.098503 -2.135983 46
-1.6107941 -16.089867 -2.1212792 46
-1.2914734 -16.091576 -2.0990357 46
-0.98843384 -16.07814 -2.0767126 46
-0.69439697 -16.065445 -2.0554266 46
-0.30374146 -16.045784 -2.0276809 46
0.0057220459 -16.050064 -2.0091667 46
0.2081604 -16.063103 -1.9985595 46
0.49636841 -16.06414 -1.9820805 46
0.87425232 -16.073235 -1.9622626 46
1.1230164 -16.084045 -1.9498162 46
7.4928284 -16.132202 0.20168114 60
7.443222 -16.203552 0.32262278 61
9.809967 -16.465805 -0.13031149 57
7.4853516 -16.26387 0.41649532 62
7.4793701 -16.275818 0.55357456 63
9.8067169 -16.517349 0.0021476746 58
9.8199005 -16.554024 0.29047298 59.5
9.7668915 -16.560684 0.4684267 61
9.9928436 -17.239708 -0.30307961 55.666668
9.9915466 -17.238678 -0.089943886 57.5
9.9613495 -17.380554 0.22538614 59
9.6051025 -17.545181 -0.78729057 53
9.8322449 -17.474632 -0.77400541 53
9.8677521 -17.570862 -0.41171169 55
10.002121 -17.42157 -0.42975903 54.75
9.8435059 -17.590614 -0.11433172 57.5
10.028519 -17.467041 -0.16972113 57
9.8661194 -17.600471 0.21240711 59
9.964859 -17.559021 0.26795387 59.5
9.8188019 -17.598969 0.44744444 61
11.496277 -17.66198 0.55861044 61
9.8022614 -17.620438 0.76917934 63
9.8531189 -17.556984 0.70920992 62
11.476074 -17.674797 0.87822533 62.5
-1.8812714 -17.664642 -2.1313367 47
-1.5829468 -17.669456 -2.1109786 47
-1.2997894 -17.682449 -2.0936532 47
-0.98921204 -17.703072 -2.0753884 47
-0.69715881 -17.729889 -2.0596313 47
-0.31639099 -17.759392 -2.0393376 47
-0.022750854 -17.793442 -2.0253005 47
0.21096802 -17.82695 -2.0154309 47
0.50668335 -17.861763 -2.0025396 47
0.86083984 -17.902069 -1.9873452 47
9.8138885 -17.727715 -0.42478132 55
9.7934875 -17.770325 -0.19752884 57
9.7368011 -17.878197 0.24407244 59.5
6.4487 -18.136642 -0.49233484 56
6.77948 -18.107536 -0.47325706 56
6.2165375 -18.256737 -0.2754631 58
6.5708923 -18.057518 -0.37014055 57
6.7581787 -18.074661 -0.30510044 57.5
6.2445221 -18.30024 -0.032558918 59
9.7156982 -18.083229 0.42961311 61
9.7099762 -18.086388 0.74166346 62.5
-3.5791626 -18.407722 -2.2381024 48
-3.3137512 -18.424965 -2.2196746 48
-3.0374298 -18.463753 -2.2031131 48
-2.8014984 -18.473793 -2.1866765 48
-2.4841003 -18.496765 -2.1663213 48
-2.2014923 -18.51635 -2.1486592 48
-1.9039459 -18.533745 -2.129674 48
-1.6009674 -18.540413 -2.109252 48
-1.4060211 -18.542717 -2.0966682 48
-1.2111053 -18.550957 -2.0842776 48
-0.91035461 -18.589645 -2.0692034 48
-0.58781433 -18.648544 -2.0554461 48
-0.29743958 -18.669975 -2.0395274 48
-0.037979126 -18.710182 -2.0283732 48
0.2671051 -18.749084 -2.0147853 48
0.59916687 -18.819 -2.0034618 48
0.88375854 -18.870483 -1.9931259 48
-4.5999146 -19.171829 -2.2940702 49
-4.2875824 -19.190041 -2.2713699 49
-3.9781494 -19.216591 -2.2502885 49
-3.6786041 -19.259598 -2.2320995 49
-3.3644104 -19.323288 -2.2155166 49
-3.0836334 -19.368767 -2.199728 49
-2.717804 -19.416191 -2.1785202 49
-2.4259796 -19.441727 -2.1606507 49
-2.1842499 -19.492577 -2.1489344 49
-1.9033051 -19.571686 -2.1384792 49
-1.6032257 -19.65741 -2.1275601 49
-1.3174133 -19.684067 -2.1115932 49
-0.97731018 -19.711823 -2.0928197 49
-0.70071411 -19.776062 -2.0818911 49
-0.37495422 -19.829239 -2.0672421 49
-0.11819458 -19.897102 -2.0590682 49
0.27656555 -19.956352 -2.0419531 49
0.58688354 -20.005257 -2.0287766 49
0.72535706 -20.05394 -2.0261741 49
-6.2917023 -20.91835 -2.3735714 50
5.6075745 -20.834152 0.09682703 61
5.5905151 -20.856575 0.44038486 62.666668
-6.0929413 -20.968819 -2.3619914 50
-5.7393799 -21.066963 -2.3436947 50
-5.4620056 -21.156418 -2.3308001 50
-5.1213379 -21.275528 -2.3162265 50
-4.8562012 -21.385338 -2.306664 50
-4.5988464 -21.497154 -2.2983098 50
8.7866821 -21.585098 -0.28171539 57
-4.5059662 -21.555923 -2.2975125 50
-4.2933502 -21.638863 -2.2899694 50
-3.9725189 -21.730293 -2.2751508 50
-3.6690521 -21.78347 -2.2584338 50
-3.4105072 -21.809799 -2.2423806 50
8.8092346 -21.61071 -0.86055136 54
8.6856079 -21.679115 -0.57668352 56
8.8090363 -21.653893 -0.63892174 55.5
-3.0960541 -21.874092 -2.2263732 50
-2.7502289 -21.925659 -2.2071862 50
-2.4338837 -21.954391 -2.1879849 50
-2.2055817 -21.995964 -2.1769547 50
-1.8827667 -22.021797 -2.1575079 50
-1.6073151 -22.05809 -2.1431503 50
-1.296936 -22.107834 -2.127831 50
-0.90653992 -22.211037 -2.1129923 50
-0.61706543 -22.279221 -2.1013908 50
-0.39584351 -22.287666 -2.088378 50
-0.057159424 -22.293343 -2.0683765 50
0.25267029 -22.320335 -2.0520096 50
10.01091 -22.790901 0.71766233 62.5
9.9615936 -22.829338 0.16053963 60
9.9937439 -22.842773 0.40166855 61
-1.4838562 -24.147659 -2.1770506 51
-1.2141266 -24.07943 -2.1532202 51
-1.0256042 -24.097351 -2.1426935 51
-0.70478821 -24.143196 -2.1266775 51
-0.29751587 -24.204124 -2.1068287 51
0.035598755 -24.278778 -2.0932417 51
0.17559814 -24.32106 -2.088995 51
0.5087738 -24.387566 -2.0751362 51
0.84346008 -24.452286 -2.0611258 51
0.99856567 -24.483345 -2.0550833 51
-7.4303894 -24.701233 -2.5198088 52
-7.2136536 -24.750816 -2.5075893 52
-7.0023346 -24.81955 -2.4973254 52
-6.6800842 -24.903511 -2.4803996 52
-6.3993378 -24.987648 -2.4666967 52
-6.093399 -25.040123 -2.4479098 52
-5.761673 -25.097824 -2.4285398 52
-5.4953461 -25.15609 -2.4140453 52
-5.1840057 -25.228226 -2.397563 52
-4.8831177 -25.302574 -2.3822985 52
-4.6049805 -25.388359 -2.3698034 52
-4.4757385 -25.469963 -2.3675041 52
-4.4017944 -25.520119 -2.3675885 52
9.949585 -25.82457 0.51400423 61.5
9.9764404 -25.814903 0.75254631 63
-7.7388763 -25.745644 -2.3075538 53
-7.504364 -25.919411 -2.3035316 53
-7.361145 -26.034248 -2.3017082 53
-7.6269684 -25.837914 -2.1457839 54
-7.4094543 -25.997459 -2.1410947 54
5.9663391 -26.075226 -0.83654261 56
6.2453003 -25.975204 -0.81509542 56
6.1798248 -26.021027 -0.55109072 57.5
9.9346313 -25.863403 0.40656948 61
9.5785217 -26.127129 0.72289515 63
9.8927307 -25.841461 0.74651909 63
-7.1630249 -26.192932 -2.2991829 53
-7.0631409 -26.310623 -2.3003659 53
-7.2697296 -26.125259 -2.1396556 54
-7.0532379 -26.269127 -1.9550858 55
-7.1888123 -26.210106 -1.7986155 56
-7.1239624 -26.296265 -1.7984257 56
-7.0864258 -26.260643 -1.4641619 57
6.4379883 -26.287483 0.2703042 61.5
9.4441681 -26.140663 0.58084297 62
9.6035919 -26.149467 0.48564434 61.5
6.3997803 -26.371597 0.49878788 63
9.4928741 -26.146629 0.71597624 63
9.6880188 -26.169647 0.73028374 63
-6.9833221 -26.343826 -2.2975383 53
-6.7735901 -26.555237 -2.2985134 53
-6.936615 -26.427681 -2.0470319 54.5
-6.8065796 -26.542778 -2.1357422 54
6.0222015 -26.670929 0.23717356 61.5
6.0228424 -26.640663 0.47133923 63
-6.6268616 -26.676567 -2.2969317 53
-6.3899536 -26.889069 -2.296268 53
-5.8318787 -26.767944 -2.2469697 53
-6.5613556 -26.875885 -2.0502687 54.5
-6.4120026 -26.878601 -1.9494467 55
-5.8036652 -26.803528 -1.9935303 54.5
-6.5380707 -26.955109 -1.796793 56
-5.9606171 -26.756233 -1.7467904 56
-5.8454132 -26.830536 -1.7436152 56
-5.8280334 -26.777679 -1.4065242 57
-5.6620331 -26.924919 -1.4020872 57
-6.2195435 -27.018448 -2.2939897 53
-5.590271 -26.976257 -2.245378 53
-5.5900574 -26.96283 -1.8985939 55
-5.6175079 -27.003654 -1.7382121 56
-5.5872345 -26.988129 -1.4005375 57
-6.9214783 -27.51358 -1.3362966 58
-6.7451019 -27.539139 -1.3262725 58
-7.0431366 -27.565155 -1.1650195 59
-7.2798157 -27.568649 -0.84589195 60
-7.1921234 -27.582932 -0.84096003 60
-6.775528 -27.569656 -0.81589794 60
-6.4834137 -27.294998 -0.79201841 60
-7.2891388 -27.546471 -0.69939089 61
-7.0779724 -27.557251 -0.68775129 61
-6.4662323 -27.391823 -0.48886585 61.75
-7.0938416 -27.519119 -0.33864975 63
-5.4058228 -27.722183 -2.2900496 53
-5.2680969 -27.823509 -2.2881179 53
-5.5088196 -27.719116 -2.1281333 54
-5.3020325 -27.749397 -1.928937 55
-5.4159241 -27.778549 -1.7694893 56
-5.3311615 -27.806801 -1.7661901 56
-6.6783142 -27.639343 -1.3254142 58
-6.2208252 -27.8312 -1.3044887 58
-5.4200592 -27.714714 -1.4238429 57
-5.2657166 -27.836143 -1.3318243 57.5
-6.9614258 -27.603401 -1.1612334 59
-6.7357025 -27.618103 -1.1478214 59
-6.5489349 -27.601181 -1.1347775 59
-6.3112488 -27.895378 -0.64903593 61
-5.1132965 -27.964828 -2.2881856 53
-5.1706238 -27.985222 -2.0298653 54.5
-6.3748932 -27.935905 -1.1359305 59
-6.3162537 -27.951111 -0.7970047 60
-6.2509003 -28.011086 -0.4300499 62
5.7046204 -28.640846 -0.41547632 59
5.7374115 -28.627525 -0.070193768 60
5.7402039 -28.580231 0.080871582 61
-4.002121 -28.945587 -2.1124935 54
-3.9467163 -28.940613 -1.9154534 55
-4.0582733 -28.926796 -1.597342 56
-4.0275116 -28.907501 -1.2998614 57.5
-3.840332 -29.064545 -1.2946796 57.5
-3.8578339 -29.079384 -2.1127086 54
-3.6882172 -29.199844 -2.1091766 54
5.4251404 -29.094124 -1.6412783 53.5
-3.703064 -29.203094 -1.9167295 55
5.4346008 -29.084091 -1.3556819 55
-3.7689972 -29.18409 -1.592381 56
5.5938416 -29.219276 -1.0246134 56
-6.8140259 -32.578583 -0.76023293 61
4.1826324 -32.834633 -2.083127 53
4.464325 -32.782082 -2.0635462 53
4.6941833 -32.733337 -2.0467854 53
5.0056763 -32.707588 -2.0282397 53
5.2937164 -32.699516 -2.0114598 53
5.5909271 -32.738319 -1.9986382 53
5.8022766 -32.732178 -1.9869022 53
5.8834381 -32.79203 -1.7878585 54
5.8273163 -32.923302 -1.5790477 55
-6.7585449 -32.871811 -1.5411978 58
-6.7277679 -32.931801 -1.3277335 59
-6.7738953 -32.741188 -0.99058533 59.75
-6.7155609 -32.875435 -0.75978947 61
-6.4896393 -32.94857 -0.74774837 61
-6.7164154 -32.837997 -0.45188761 62.333332
-6.6209412 -32.98864 -1.5375166 58
-1.2737885 -33.893745 -1.6865315 56
-1.1960602 -33.932533 -1.2359166 58
-1.1254272 -33.922417 -1.440742 57
10.87233 -40.67215 -0.50605202 59
10.481461 -40.531136 -0.32714319 59
10.677002 -40.655502 0.083881378 60.5
10.785278 -40.668671 -0.018120289 60
