# .PCD v0.7 - Point Cloud Data file format
VERSION 0.7
FIELDS x y z intensity
SIZE 4 4 4 4
TYPE F F F F
COUNT 1 1 1 1
WIDTH 1325
HEIGHT 1
VIEWPOINT 0 0 0 1 0 0 0
POINTS 1325
DATA ascii
5.2817841 20.116196 0.11421156 54
5.215744 20.305756 0.48865318 56
5.2059631 20.258659 0.66372275 57.5
5.3192139 19.939461 0.03938818 53.333332
5.3234863 19.903526 0.40802431 55.333332
5.312912 19.910965 0.66087389 57.5
5.3099518 19.829857 0.8532846 59
5.370697 19.811768 -0.12347507 52
5.3587036 19.695206 0.6331768 57.25
5.3387451 19.599701 0.95760965 59.5
4.3584137 19.410629 -0.23415136 51
5.4713287 19.373314 -0.21711636 51
3.4644775 19.258446 0.086876869 54
4.1697845 19.362679 0.045394897 53.5
4.2584381 19.373627 -0.13151598 52
5.4992218 19.279076 0.038844109 53.25
3.4535675 19.240417 0.26262808 55
5.4897919 19.279427 0.36990547 55
3.5089264 19.270004 0.47230911 56.333332
5.5348663 19.353828 0.59631276 57
5.7997589 19.38472 0.68797302 57.666668
5.3743896 19.401329 1.0621943 60
5.4958038 19.351898 0.90026855 59.25
5.8712311 19.376656 0.92996907 59.333332
5.5237122 19.362144 1.2632542 61.599998
5.7962036 19.382782 1.2632508 61.5
5.9823761 19.399559 1.3215485 62
5.5741577 19.382835 1.45644 63
5.9844208 19.432343 1.4738507 63
3.3089447 18.959274 -0.13943577 52
3.3292389 18.939888 -0.020353317 53
5.5567932 19.110611 -0.065130234 52.333332
5.5223236 19.169685 0.37023449 55
5.5683746 18.927925 0.48570108 56
-3.0937653 18.710281 -1.5226092 44
-2.8349762 18.798485 -1.5182076 44
5.6575623 18.672516 -0.19712591 51
3.2320862 18.883125 -0.080455303 52.5
5.6371613 18.7323 0.043521881 53.200001
5.6295624 18.73037 0.37160826 55
5.6578827 18.597527 0.48440742 56
-5.7663574 18.370331 -1.6415277 44
-5.4663696 18.42411 -1.6274757 44
-5.1620636 18.460373 -1.6118441 44
-4.9033508 18.486595 -1.59905 44
-4.5615692 18.506645 -1.581306 44
-4.26297 18.52578 -1.56638 44
-3.9669952 18.549858 -1.5527139 44
-3.6667938 18.573463 -1.5389476 44
-3.3818512 18.622162 -1.5291777 44
5.7236481 18.456352 -0.53733206 49
5.7620697 18.367188 -0.36422062 50.5
5.705246 18.546974 -0.092430592 52
5.7481079 18.386581 -0.088469505 52
5.6834717 18.5485 0.37243319 55
5.6751404 18.449707 0.48401737 56
5.7344055 18.341049 0.48418093 56
-5.9580078 18.337173 -1.6513548 44
5.8179779 18.155342 -0.34147596 50.666668
5.7830353 18.162277 0.053171158 53.200001
5.793869 18.146942 0.25128317 55
5.8141785 18.020981 0.58915758 57
5.7379913 18.154312 0.82142687 59
-2.7966766 17.769081 -1.5315919 43
5.8704681 17.955475 -0.51554823 49
5.8972168 17.821709 -0.33016968 50.666668
5.8856049 17.836395 -0.037070751 52.333332
5.875885 17.841164 0.19928312 54.5
5.8504944 17.857231 0.58786249 57
5.7939148 17.801483 0.94918299 59.666668
-4.5519257 17.543564 -1.6045794 43
-4.2349091 17.570366 -1.5884686 43
-3.958786 17.596405 -1.5756345 43
-3.6608582 17.607269 -1.5604033 43
-3.3294525 17.635399 -1.5458565 43
-3.0966339 17.673203 -1.5374031 43
-2.9335632 17.725037 -1.5341716 43
5.9966888 17.519333 -0.49623203 49
5.9851685 17.558754 -0.35028887 50.333332
5.9470978 17.57032 -0.031557083 52.333332
5.9285583 17.634186 0.21925735 54.666668
5.94133 17.557182 0.57057762 56.857143
5.8930511 17.515205 0.87607074 59.333332
-1.8439484 17.219055 -1.5281811 42
-1.5378113 17.276009 -1.5217023 42
-1.2335205 17.326187 -1.5151691 42
6.0240479 17.287071 -0.28257465 51
6.0630188 17.305046 -0.37023592 50
6.0375977 17.253403 -0.056229115 52.333332
6.0306091 17.251961 0.20535803 54.5
6.0206146 17.191261 0.61286879 57.333332
5.9750366 17.278015 0.80591226 59
6.013855 17.279655 0.92074037 60
5.9789429 17.234009 1.2184801 62
5.9959106 17.26046 1.1287746 61
6.0080109 17.234291 1.3544922 63
-2.817337 16.89563 -1.5413871 42
-2.5012207 16.984741 -1.5345182 42
-2.1924591 17.096443 -1.5313363 42
6.1341095 16.852173 -0.26803684 51
6.1162109 16.911713 -0.011674404 52.666668
6.1085052 16.959137 0.20834732 54.5
6.0985413 16.949425 0.58287501 57
6.080246 16.916664 0.85461259 59.5
6.7377319 16.793327 0.92621613 60
6.66185 16.776062 1.175127 61.5
6.6813812 16.777679 1.355444 63
-5.3615723 16.590843 -1.6604128 42
-5.1471558 16.639099 -1.6507988 42
-4.8870239 16.682938 -1.6381302 42
-4.5434418 16.717728 -1.6193919 42
-4.2513428 16.739021 -1.6039462 42
-3.9245605 16.765701 -1.5875177 42
-3.7722015 16.767052 -1.5786352 42
-3.4307861 16.792351 -1.5626335 42
-3.1417847 16.820816 -1.5502806 42
6.1596069 16.76313 -0.26522732 51
6.1801147 16.710777 -0.041628838 52.5
6.1615906 16.707191 0.26550484 55
6.2063599 16.708359 0.60922289 57.333332
6.4173126 16.695908 0.63463187 57.5
6.1670685 16.735321 0.83400106 59.333332
6.3787384 16.71315 0.80171847 59
6.149826 16.692543 1.1685677 61.666668
6.7567139 16.693306 1.1747122 61.5
6.1649933 16.686279 1.3309736 63
6.7767639 16.714272 1.3556862 63
-5.6847992 16.517525 -1.6764145 42
-5.5229492 16.552948 -1.6681948 42
15.067169 15.612465 0.60262251 56
14.912109 15.711197 0.78597093 57.5
15.024323 15.630745 0.78638864 57.5
14.982132 15.81739 1.1334186 59
15.032822 15.722221 1.1317661 59
15.01683 15.668831 1.3807683 61
15.03569 15.621368 1.652524 63
2.2098236 15.375824 -0.98917675 45
2.1686401 15.464218 -0.52901745 49
14.235947 15.369377 -0.04027319 52
14.014694 15.322014 0.1505208 53.5
14.408478 15.444809 0.088983059 53
14.417007 15.441086 0.20823097 54
13.976959 15.343864 0.52524519 55.5
14.357086 15.428543 0.52985382 55.5
13.997116 15.300293 0.6905632 57
15.010315 15.559456 1.4860525 62
-2.7106018 15.063293 -1.5701022 41
-2.4609528 15.099304 -1.5611362 41
-2.2289124 15.157204 -1.556253 41
13.149231 15.094604 -1.032917 45.5
13.254166 15.047951 -0.97053242 46
2.280777 15.060699 -0.9624815 45
13.154068 15.099884 -0.72454357 47
12.907166 15.07383 -0.54456949 48.5
13.181641 15.115639 -0.52037334 48.75
13.278351 15.175697 -0.3709836 50
13.171326 15.131126 -0.13390827 51
13.805344 15.269699 -0.035870552 52
13.916306 15.294014 -0.036767483 52
13.121948 15.093697 0.092440605 53
13.235519 15.127594 0.15266752 53.5
13.869614 15.304153 0.092309952 53
13.17688 15.122734 0.4560647 55
13.224655 15.08213 0.45613766 55
6.5557404 15.133507 0.66697001 58
6.6020966 15.016403 0.60941339 57.5
12.658401 15.019615 0.56533957 56
13.141281 15.1446 0.57284641 56
13.213333 15.037354 0.69155049 57
13.872833 15.273766 0.75880837 57.5
6.5577393 15.080009 0.7645185 59
6.6246796 15.041031 0.86766124 60
13.176208 14.979874 0.92977691 59
6.5397644 15.178726 1.202527 62.5
6.5853882 15.069588 1.0551219 61
-3.6250153 14.987267 -1.6135054 41
-3.415451 15.008644 -1.6038709 41
-3.112915 15.026283 -1.588203 41
-2.8938293 15.039879 -1.5775409 41
12.506638 14.993759 -1.0636468 45
12.703918 15.036156 -1.0743856 45
13.195816 15.029129 -1.0319524 45.5
13.285416 14.987869 -1.0977225 45
12.43898 14.946472 -0.87603998 46.5
12.765442 15.01725 -0.83027458 46.666668
13.191666 15.001297 -0.72219038 47
12.53717 14.977875 -0.58779287 48
12.702866 15.004837 -0.53767252 48.5
13.194046 15.018227 -0.49383307 49
11.969559 14.790184 0.022709846 52.333332
12.209412 14.842751 0.096993446 53
12.517136 14.937454 0.095615864 53
12.686691 14.976715 0.094290733 53
13.196457 14.991249 0.152987 53.5
13.227448 14.972359 -0.027898312 52
6.6634979 14.849541 0.18045187 54
11.606522 14.736214 0.3176651 55
12.174194 14.85376 0.44457245 55
12.579407 14.964226 0.44903851 55
12.67453 14.979118 0.45036173 55
13.21521 14.978775 0.45442963 55
6.6416168 14.857368 0.5307405 57
11.581985 14.742462 0.54762173 56
11.948532 14.765518 0.71345401 57.5
12.104095 14.816048 0.6852262 57.200001
12.4897 14.938942 0.64460158 56.75
12.684662 14.95047 0.73074174 57.5
13.213654 14.973686 0.67243028 57
6.6673889 14.762344 0.8093853 59.5
11.646439 14.696274 0.88484144 59
11.925201 14.75473 0.89307904 59
12.052551 14.749054 0.99978447 59.5
12.525894 14.900742 0.91180158 59
12.672211 14.910431 1.0220835 59.5
6.6528778 14.785622 1.117981 61.799999
-2.7136688 14.518272 -1.5774541 40
-2.4938965 14.543991 -1.5686522 40
-2.22789 14.591492 -1.5605764 40
-1.8476105 14.691544 -1.5540543 40
-1.6518555 14.746941 -1.5514503 40
11.179321 14.630569 -0.87564611 46
11.121628 14.607452 -0.53912878 48
11.175888 14.636543 -0.43844986 49
6.789505 14.452202 -0.36667585 49.5
10.497787 14.463257 -0.26319981 50.5
6.7463531 14.565704 -0.14393568 51.5
10.461884 14.463791 -0.098086834 52
10.670074 14.460793 0.049656391 52.5
10.961014 14.530411 0.067306519 52.666668
11.270996 14.605186 -0.010735035 52
11.585663 14.687347 0.077937126 52.799999
6.7333221 14.575645 0.18303871 54
10.488525 14.410446 0.20674038 54
10.580841 14.472916 0.31116199 55
10.939316 14.546738 0.24287701 54.333332
11.117523 14.611549 0.31473207 55
11.489517 14.672401 0.20821047 54
6.7224731 14.558762 0.52872181 57
10.611725 14.446243 0.66004348 57.25
10.998932 14.565895 0.61473703 56.75
11.391739 14.62574 0.76380634 58
11.550934 14.659424 0.68307853 57.333332
6.7621307 14.387764 0.80103326 59.5
10.292526 14.405334 0.9539783 60
10.675369 14.470367 0.91048598 59.5
10.97467 14.506714 0.86255002 59
11.439133 14.586578 0.97712922 59.5
6.749115 14.393578 1.0716085 61.5
10.330093 14.376175 1.1568317 61
10.645584 14.430824 1.2158422 61.5
10.594589 14.412804 1.3926525 63
2.3634033 14.395271 -1.3139386 41
2.4827271 14.345146 -1.3078489 41
9.3235779 14.147812 -1.0919404 44
2.4920807 14.321983 -1.0517468 43
6.8791046 14.191628 -1.0137844 44
9.3377228 14.175629 -0.8989048 45
9.421524 14.150703 -0.7918787 46
2.4628906 14.354614 -0.90339136 45
6.8336639 14.252876 -0.68249416 46.57143
9.4187164 14.157257 -0.63759136 47.5
2.4882355 14.255592 -0.46247625 49
6.8305664 14.326103 -0.39926291 49.200001
9.3059387 14.140823 -0.38949919 49
10.030121 14.339645 -0.25370836 50.5
6.8173981 14.303032 -0.15524483 51.333332
9.3636627 14.164749 0.010910511 52.5
9.6951752 14.199509 0.10803175 53
9.9849548 14.303566 0.0075097084 52.5
10.463181 14.396294 0.050862789 52.5
6.8028412 14.291191 0.16748285 53.799999
9.2094574 14.127525 0.30037117 55
9.4649353 14.173973 0.33280277 55.25
9.7623138 14.242554 0.30905771 55
10.023285 14.316986 0.36294889 55.5
6.7952576 14.271774 0.52229929 57
9.4303894 14.127808 0.65331149 57.5
9.6949921 14.195328 0.64025044 57.333332
9.996994 14.265572 0.66713834 57.5
10.250061 14.344139 0.67340755 57.5
6.7942963 14.284851 0.79933023 59.5
9.3987732 14.12928 0.84844565 59.333332
9.7858124 14.240524 0.87985659 59.5
9.9600067 14.247589 0.83022881 59
10.240814 14.330246 0.83983755 59
6.7807617 14.327759 1.099648 61.75
9.3153839 14.117538 1.1105003 61
9.7806549 14.248146 1.1322074 61
9.6760254 14.180344 1.3405504 63
-2.3039856 13.869553 -1.5827723 39
6.9397583 13.979424 -1.182178 42
8.4799194 13.879814 -1.1224904 43
8.8517151 13.973404 -1.1440797 43
9.2516174 14.098907 -1.1414208 43.333332
2.6046753 13.857361 -1.0087433 43
6.9253998 13.919052 -1.071497 43
6.9438171 13.916924 -0.99544287 44
8.5397949 13.947159 -0.95430613 44.5
8.8626709 14.035164 -0.97065878 44.5
9.2414246 14.127686 -0.89235544 45
2.5686798 13.906654 -0.86629534 45
6.9120789 13.949387 -0.72087336 46
8.4091949 13.862495 -0.55110359 48
8.6508789 13.958504 -0.66024351 47
8.8873138 14.033104 -0.7040205 46.666668
9.1563568 14.07692 -0.65258455 47.25
2.5682983 13.906197 -0.44339848 49
6.8951263 14.011742 -0.50342894 48.333332
6.9412842 13.947128 -0.3173418 49.666668
8.2734528 13.892479 -0.31479645 49.5
8.5773621 13.962105 -0.36960936 49
8.8742218 14.048622 -0.28230953 50
9.1047668 14.102951 -0.33168936 49.5
6.9099274 13.943611 -0.12837315 51.5
6.9447784 13.880287 -0.074544907 52
8.2392578 13.883469 -0.13068104 51.5
8.4944763 13.953278 -0.133389 51.5
8.8427734 14.04393 -0.061933041 52
9.1946869 14.081215 0.10870457 53
6.8965454 13.97374 0.17079067 53.799999
6.9471588 13.827179 0.27811527 55
8.0854187 13.837517 0.29042006 55
8.2401428 13.842377 0.18111753 53.799999
8.4885101 13.911247 0.20062256 54
8.7997284 13.994812 0.27311993 54.714287
9.1753693 14.082787 0.30537796 55
6.8670654 14.055305 0.44837523 56.5
6.9337158 13.850494 0.42171383 56.5
8.2404633 13.826607 0.56609678 57.142857
8.5012207 13.900078 0.55320311 57
8.7920837 13.96489 0.59080076 57.200001
9.0980835 14.037514 0.64491248 57.5
6.8629608 13.966873 0.69686007 58.5
8.2807465 13.821877 0.77620697 59
8.5158386 13.87915 0.78411961 59
8.8013458 13.955559 0.79325271 59
9.0201111 14.039932 0.853127 59.5
6.8686371 13.926407 1.1517649 62.5
9.3034821 14.069199 1.1926246 62
-4.5827789 13.588448 -1.6971874 39
-4.3049774 13.653343 -1.683732 39
-4.0063171 13.705666 -1.6681862 39
-3.718689 13.744583 -1.6529007 39
-3.3891144 13.780167 -1.63519 39
-3.0914001 13.811333 -1.6204309 39
-2.7925873 13.831635 -1.6049061 39
-2.4599915 13.852112 -1.5889187 39
2.6894226 13.601334 -1.3216758 40
2.7966461 13.563377 -1.3170471 40
2.6670837 13.687462 -1.1136131 42
7.0719299 13.58847 -0.95872164 44.166668
7.3691864 13.634552 -1.0251417 43.5
9.1866608 13.56369 -0.95307589 44.5
2.6496735 13.71212 -0.90335751 44.25
7.0773163 13.601036 -0.66864681 46.375
7.3090057 13.629601 -0.71051025 46
7.0598907 13.615997 -0.47268486 48.5
7.3516235 13.653008 -0.34037304 49.5
7.0491791 13.614456 -0.10117388 51.714287
7.3717194 13.670013 -0.14781713 51.200001
7.0192719 13.618843 0.20902586 54.200001
7.3865662 13.632301 0.21216631 54.200001
7.5278168 13.641693 0.10745287 53
7.9137421 13.755562 0.1974926 54
6.9976196 13.6558 0.40656853 56.333332
7.3569336 13.637924 0.46786785 56.666668
7.6530914 13.678345 0.47151661 56.5
7.92453 13.752213 0.5030911 56.75
7.0338287 13.581772 0.83245182 60
7.446228 13.625473 0.75058031 59
7.708252 13.749809 0.85816526 60
7.9417267 13.736938 0.7658577 59
6.9997406 13.531509 1.1106453 62.200001
7.4175262 13.62236 1.0900002 61.75
7.6806488 13.71833 1.0354743 61
-4.8582458 13.547997 -1.7139926 39
9.2360535 13.464127 -1.1605554 42.666668
2.7319489 13.533676 -1.2188754 41
9.2827301 13.454048 -1.0436049 44
2.7071533 13.491425 -0.90437365 44
7.4534454 13.285759 -0.10936117 51.57143
7.4358673 13.277481 0.21849918 54.25
7.4328308 13.276672 0.38079357 56
2.8332977 13.101089 -1.1000667 42
2.8181305 13.094261 -0.79711151 45
-2.2020111 12.724655 -1.5835738 38
-1.8578186 12.762901 -1.5704298 38
-1.5632629 12.829506 -1.5644908 38
-1.2712402 12.901718 -1.5609598 38
-1.1354828 12.941788 -1.5598655 38
10.07016 12.661751 -1.1101418 43
2.925705 12.793846 -1.1395245 41
10.1203 12.684608 -0.97064161 44.333332
2.9336395 12.742989 -0.86903572 44
2.9081421 12.7267 -0.69283152 46
-4.5103149 12.376968 -1.6989903 38
-4.2926941 12.423485 -1.6869793 38
-4.0403595 12.497635 -1.6759605 38
-3.7520905 12.558357 -1.6617055 38
-3.4416656 12.606621 -1.6456261 38
10.214127 12.571457 -1.1118498 43
3.0626678 12.397072 -1.1846204 40
10.262344 12.603523 -1.0356092 44
2.9659882 12.538254 -0.88754177 44
3.0665131 12.345421 -0.95498705 43
2.9493561 12.553108 -0.52118111 47.5
4.8143158 12.317848 -0.19778013 51
4.8077698 12.366249 -0.047221661 52
4.8163605 12.383026 0.061698914 53.5
5.0782013 12.418213 0.4187212 57
5.0780182 12.425858 0.57612634 58
5.0947876 12.423866 0.65664148 59
-4.6212006 12.360046 -1.7063613 38
-1.2605286 12.079475 -1.5740561 36
-0.97476196 12.143135 -1.5707998 36
3.0965118 12.273048 -1.1887217 40
3.0313263 12.321823 -0.86874056 44
3.1282349 12.087357 -0.90330887 43.333332
10.90152 12.119545 -0.67425776 46.75
4.7054443 12.161659 -0.42156315 48
10.95015 12.124283 -0.36534834 49
4.7616425 12.209343 -0.31340265 49.5
4.9929199 12.097839 -0.28519678 49.799999
5.195282 12.127708 -0.21207523 50.75
4.9108276 12.26973 0.027787209 53
5.2029877 12.188309 0.031419754 53
-2.0683289 11.959831 -1.5982618 36
-1.8630676 11.976112 -1.5894051 36
-1.5697632 12.011673 -1.5794506 36
4.832962 11.87188 -1.3031049 39
4.9722137 11.846336 -1.3054523 39
3.1875763 11.868782 -1.1440172 40
4.816864 11.877449 -1.0914412 41
5.0066223 11.811554 -1.068656 41.25
5.2457428 11.797455 -1.089818 41
3.1490479 11.932594 -0.99574184 42
4.8208313 11.945473 -0.86834574 43.5
4.9157104 11.886803 -0.79302549 44.25
5.2511597 11.849503 -0.82159376 44
4.9508514 11.966293 -0.53134584 47
5.2345734 11.929092 -0.54531431 47
2.9867859 11.574821 -1.3375664 38
3.2481384 11.517296 -1.2150908 39
8.5386963 11.559242 -0.88939571 44
3.278656 11.460983 -0.90364647 42.5
8.4687042 11.525925 -0.71666336 45.5
3.2550354 11.524071 -0.54455471 46.799999
8.4756317 11.526703 -0.54300833 47
-3.2529602 11.161415 -1.6709366 35
-3.0547028 11.196098 -1.6605868 35
-2.763443 11.223984 -1.6434875 35
-0.33369446 11.204842 -1.5808592 35
0.18826294 11.219643 -1.5673327 35
0.47776794 11.238884 -1.5641594 35
0.76567078 11.249344 -1.560997 35
0.96961975 11.24601 -1.5577221 35
3.3230743 11.373878 -1.2630596 38.5
3.3552399 11.250305 -1.059237 40
-6.5778198 11.202148 -1.0748892 45
-6.5474854 11.178474 -1.1498213 44
3.3268433 11.236916 -0.92690086 42
3.3440704 11.226913 -0.9134531 42
-6.5813904 11.225983 -0.91210365 47
3.2665405 11.395355 -0.66419649 45
3.3373108 11.189911 -0.54376221 46.5
-6.5691071 11.16777 -0.67635059 49
-3.9117889 11.02253 -1.705523 35
-3.6485748 11.092865 -1.6927972 35
-3.4528198 11.128716 -1.6818752 35
3.4049225 11.046066 -0.85888243 42.599998
6.0083923 10.901062 -0.74155378 44.5
3.4221954 10.910851 -0.60602617 45.5
6.0156708 10.922729 -0.56494284 46.5
-6.3208618 10.821175 -0.005897522 56.5
6.000473 10.640732 -1.3364015 37
6.0974579 10.575409 -1.3342633 37
3.5640717 10.564964 -1.1182413 39
3.5339966 10.607697 -0.88024092 42
3.5015717 10.706848 -0.59709406 45.5
4.1759796 10.529495 -0.54149342 46
-6.2941895 10.779556 -0.27216625 53.5
-6.3146057 10.766037 -0.1240406 55
6.2691498 10.474068 -1.3337379 37
6.4723663 10.325638 -1.330327 37
3.5677338 10.534996 -1.1669235 38.5
-6.3315277 10.409264 -1.1770849 43.5
3.706604 10.392113 -0.81338835 42.5
-6.3820953 10.488037 -0.93436813 46
3.5508881 10.495598 -0.71153021 44
3.7232361 10.42675 -0.70863771 44
4.0687561 10.48584 -0.58569765 45.400002
1.8442383 10.137703 -1.4952269 33
2.0106812 10.10672 -1.4923229 33
2.2989807 10.043037 -1.486784 33
2.5293121 9.9826813 -1.4819837 33
6.5718689 10.237549 -1.3275175 37
6.785965 10.067123 -1.3239102 37
-6.1595001 10.078171 -0.29014921 53.5
-6.2003784 10.140312 -0.04216671 56
2.635376 9.9432983 -1.4785948 33
2.8835144 9.8456268 -1.4702134 33
3.1163788 9.7369614 -1.4606233 33
6.9753113 9.9226761 -1.3223848 37
3.0734863 9.3710022 -1.4881434 32
5.5378418 9.5689163 -1.3621688 36
5.7787933 9.4088135 -1.3594232 36
-5.9607544 9.338974 -0.019469738 56.5
-5.962738 9.3470535 0.20067406 59.5
16.461365 9.4333572 1.2385335 61.5
16.489532 9.4149704 1.2873096 62
16.452103 9.4453049 1.4303417 63
16.493179 9.3483887 1.4283562 63
-3.0501556 9.0686646 -1.7170334 31
-0.237854 9.2062454 -1.5853977 30
0.48855591 9.2325058 -1.5732627 30
0.83772278 9.2771301 -1.578476 30
1.0672455 9.2680664 -1.5763388 30
1.3886414 9.250885 -1.574203 30
1.7064362 9.2365646 -1.5755906 30
3.2175903 9.302536 -1.4831586 32
3.5228424 9.1551895 -1.4740968 32
5.9337006 9.2942429 -1.3570123 36
6.1567993 9.1180573 -1.3534822 36
-6.0188293 9.1376114 -0.96202517 45
-6.0325623 9.1506577 -0.69227123 48
-5.9314117 9.2837524 -0.231287 54
-3.6196289 8.9070969 -1.7479978 31
-3.407135 8.9667282 -1.7353621 31
-3.223053 9.0228958 -1.7259912 31
-2.4863586 8.8041763 -1.6944442 30
-2.148407 8.8515701 -1.6747727 30
-1.2714386 8.9492493 -1.6332917 30
-1.0047913 8.9621201 -1.621388 30
-0.68507385 8.9948196 -1.6128197 30
-0.4029541 9.0308075 -1.6084046 30
-0.23960876 8.9340057 -1.599514 29
0.53909302 8.9390411 -1.5829859 29
0.82272339 8.9298096 -1.5784564 29
1.0821686 8.9581985 -1.5846777 29
1.4237823 8.9661713 -1.589098 29
1.6903381 8.9320679 -1.5864325 29
2.0058746 8.9227982 -1.5564427 29.5
2.3209686 8.9127197 -1.530005 30
2.6657104 8.7779236 -1.517827 30
3.5047455 8.7774811 -1.4840794 31
3.8554535 8.9136429 -1.4540133 32
-3.5897675 8.5026474 -1.751544 30
-3.4392853 8.5504608 -1.7427225 30
-3.102005 8.6618805 -1.7270551 30
-2.8349609 8.735199 -1.7136002 30
-1.97258 8.4797974 -1.6677423 29
-0.22579956 8.5209656 -1.5973244 28
0.34277344 8.5802155 -1.5956087 28
0.55029297 8.5443115 -1.5850034 28
0.78607178 8.5441437 -1.5833688 28
1.1007233 8.5233917 -1.5800357 28
1.4296875 8.4986649 -1.5784097 28
1.729187 8.4880676 -1.5827222 28
2.3326111 8.6253204 -1.544939 29
2.6475525 8.5115967 -1.5362091 29
2.9031067 8.651886 -1.5060949 30
3.2035217 8.4855347 -1.4923005 30
3.6320801 8.7044601 -1.4795961 31
3.8253632 8.5571899 -1.4677234 31
-3.1042328 8.2475128 -1.7302389 29
-2.786377 8.3458252 -1.7152867 29
-2.4944916 8.3987885 -1.6967468 29
-2.1968842 8.4504929 -1.6805921 29
-1.7760773 8.2404709 -1.6745286 27
-1.6325684 8.2585907 -1.6668482 27
-1.3068542 8.284317 -1.6502128 27
-0.99378967 8.2925644 -1.6334891 27
-0.68310547 8.306366 -1.6209249 27
-0.36129761 8.3599777 -1.6193323 27
-0.20846558 8.1776657 -1.5997128 27
0.49993896 8.1896591 -1.5870547 27
0.8122406 8.1777954 -1.5832314 27
1.0251465 8.1653137 -1.5806975 27
2.8438568 8.4043503 -1.5258412 29
3.2147217 8.2854996 -1.5022597 29.333334
3.5427856 8.2902069 -1.479053 30
3.7490845 8.1690292 -1.4723563 30
4.093811 8.3222809 -1.4483924 31
-5.8110657 8.3742218 -1.1950731 41
-5.8151093 8.3645325 -0.94793653 44
-5.8354187 8.3701096 -0.67268181 48
8.4420776 8.2626724 0.45872879 57.666668
8.49823 8.1580811 0.65419579 59.666668
-3.7160492 7.9125137 -1.6649575 30
-3.3661652 8.0201721 -1.7521095 28.5
-3.067337 7.9891663 -1.7472181 28
-2.7460632 8.077507 -1.7294693 28
-2.5435486 8.1184235 -1.7168698 28
-0.93641663 7.935257 -1.6393967 26
-0.65174866 7.9508667 -1.6282654 26
-0.35398865 7.9519119 -1.615716 26
-0.18981934 7.9382095 -1.6256328 26
0.31184387 7.9541626 -1.6173587 26
0.52870178 7.9589462 -1.6161203 26
0.78604126 7.9324188 -1.6091928 26
1.1455994 8.0204849 -1.5906162 26.5
1.3811493 7.9608994 -1.5952206 26.333334
1.6532898 8.1000443 -1.5778656 27
2.8276825 7.9121323 -1.5136037 28
3.5270233 7.9862671 -1.4920917 29
3.8714142 8.0791779 -1.4666491 30
4.0432129 7.9272842 -1.4545002 30
4.3837585 8.0825348 -1.433022 31
-5.7004242 7.9228287 -1.1680851 40.5
-5.7045288 7.9086914 -1.0677633 42.333332
7.7048798 7.8212967 -0.4344449 47
7.6844177 7.9524384 -0.17897081 50
7.7684631 8.0843735 -0.031904221 52
7.8773193 7.8299637 0.076742649 53.25
-5.5816498 8.0315475 0.087007046 58
7.9545898 7.8719482 0.23859453 55.5
8.5226288 7.9280624 0.47286916 58
-5.596405 8.0389328 0.2589674 60.5
8.5210114 7.8849411 0.58650899 59.5
-5.6048431 8.0484695 0.44018555 63
-3.9037323 7.7862778 -1.6668015 30
-3.559494 7.606163 -1.6659837 29
-2.2088013 7.7085571 -1.6864386 26
-1.9033203 7.7619095 -1.6697483 26
-1.608017 7.7977524 -1.653399 26
-1.3029022 7.8366699 -1.6401882 26
-0.58287048 7.6059952 -1.6269469 25
-0.38612366 7.6160889 -1.6210051 25
-0.1917572 7.574173 -1.6007686 25
0.30413818 7.6450348 -1.6058464 25
0.54296875 7.6430893 -1.6034083 25
0.82099915 7.618866 -1.5980229 25
1.1154938 7.586853 -1.5936565 25
1.3379059 7.5628967 -1.5922146 25
2.9455872 7.8323669 -1.5056829 28
3.1774139 7.6960144 -1.4952049 28
3.8106537 7.795929 -1.4803505 29
4.009613 7.6809464 -1.4776726 29
-5.609787 7.7737579 -1.5155673 35.5
-4.0783844 7.640831 -1.6653705 30
-5.6446228 7.7915802 -1.3095798 38
8.6494904 7.6100693 -0.73621225 44
8.0746765 7.5762405 -0.53493738 45.666668
8.6616516 7.6066895 -0.5451479 46
7.739502 7.803833 -0.30335808 48.5
7.8226318 7.8089371 -0.17958736 50
8.6435242 7.6180267 -0.28379107 49
7.8005524 7.786972 -0.10840082 51
7.9147339 7.7809753 0.074989796 53
8.1313782 7.584671 0.096323967 53.333332
8.5924835 7.7052231 0.10261393 53.5
8.1241455 7.5951385 0.2042284 55
8.6052399 7.679306 0.31273174 56
8.5928955 7.6205139 0.58121514 59.5
17.24118 7.6440506 1.1856942 61.333332
17.259064 7.5928192 1.4358644 63
-3.5528564 7.2764359 -1.6725678 28
-3.4106445 7.4325256 -1.6826115 28
-1.7895355 7.4456711 -1.6700306 25
-1.5995636 7.4705124 -1.659296 25
-1.4044495 7.4966965 -1.6503787 25
-1.0436401 7.5162888 -1.6311622 25
-0.77371216 7.5303116 -1.6192379 25
-0.18447876 7.3056259 -1.5999746 24
0.29577637 7.3268738 -1.5946541 24
0.51679993 7.3770294 -1.6052852 24
0.85534668 7.3588867 -1.6016083 24
1.143692 7.3222046 -1.5973291 24
1.4655457 7.4059143 -1.5923028 24.5
3.1648254 7.3274841 -1.4997716 27
3.5347595 7.4872894 -1.4843459 28
-5.5166473 7.4051743 -1.4606051 35.5
-4.4754944 7.3005447 -1.6654568 30
-4.3105774 7.4526825 -1.6664433 30
-3.7913513 7.4308319 -1.665133 29
-5.5385132 7.4084167 -1.2594538 38
8.7134399 7.3750305 -0.72939157 44
8.0510406 7.5157547 -0.69095993 44
8.6839294 7.4593887 -0.5401001 46
8.745697 7.3091736 -0.53914881 46
8.7023621 7.3725586 -0.29152298 49
8.7437286 7.2744217 -0.28029871 49
8.6820984 7.3651123 0.10181475 53.5
8.6713409 7.4259491 0.33602238 56.333332
8.718689 7.2628174 0.37418699 56.799999
8.6535645 7.3542938 0.58690858 59.666668
8.6951904 7.2631226 0.53962684 59
-1.5337677 6.9609604 -1.6802101 22
-1.271225 6.9893875 -1.666275 22
-0.93641663 7.014267 -1.6493802 22
-0.68473816 7.0207291 -1.6367044 22
-0.36167908 7.0265579 -1.6235094 22
-0.17658997 7.1272125 -1.600667 23
0.29008484 7.1282272 -1.5904179 23
0.50163269 7.1336288 -1.5905585 23
0.83401489 7.1612167 -1.5993085 23
1.0744171 7.1270523 -1.5941429 23
1.3419952 7.0753479 -1.5882406 23
2.9818268 7.1885605 -1.5369096 26
3.1795807 7.0555496 -1.52634 26
3.4687347 7.1254959 -1.4862871 27
-4.803772 7.029068 -1.6724415 30
-4.6346283 7.1687775 -1.6686769 30
-4.265274 7.0503845 -1.6674461 29
-4.0069122 7.1094818 -1.6721373 28.5
-3.7782898 7.138588 -1.6778793 28
-5.4827881 7.1835022 -1.2945399 37.25
-5.5195465 7.1327591 -0.96914625 42.5
8.7769928 7.0806046 -0.56947517 45.57143
8.7725983 7.0912094 -0.2837534 49
8.7386017 7.1240616 0.10114813 53.5
8.7737579 7.0537033 0.32204866 56.166668
8.7356873 7.064682 0.55827117 59.333332
-1.644989 6.8057251 -1.6859765 21.5
-1.2667084 6.728363 -1.6679783 21
-1.0219727 6.7357864 -1.6524539 21
-0.67744446 6.759346 -1.6375747 21
-0.34294128 6.7713852 -1.6253543 21
-0.16085815 6.7962646 -1.6295013 20.75
0.27832031 6.9274292 -1.6144676 22
0.46034241 6.9310913 -1.6143098 22
0.7828064 6.9248657 -1.613966 22
1.1108856 6.7861862 -1.6161046 21
3.128418 6.7730637 -1.5242085 25
-5.1038208 6.7072754 -1.6732044 30
-4.9598236 6.8747253 -1.6737905 30
-4.5342255 6.8052063 -1.6681409 29
-4.2141113 6.7985535 -1.6820993 28
-5.3825073 6.8425446 -1.2683353 37
-5.3551331 6.822197 -1.4046378 35
-5.368454 6.637413 -0.98543501 41
-5.3434753 6.6769333 -1.0465279 40
5.7894135 6.8584137 -0.67835808 42
8.7981415 6.8488083 -0.71221113 44
8.8118591 6.8875427 0.13431072 54
-5.2233582 6.7637939 -0.083848476 56
8.8486633 6.7824478 0.34965515 56.666668
-5.217865 6.7388611 0.11310816 59.5
8.8203125 6.7225037 0.56229329 59.5
-1.7599792 6.4602356 -1.6922598 20
-1.5396423 6.5023193 -1.681097 20
-1.3127594 6.5300369 -1.6681962 20
-1.0681 6.5589066 -1.6570072 20
-0.66734314 6.5139999 -1.6456256 19.666666
-0.3881073 6.4617233 -1.6437278 19.333334
-0.15490723 6.483223 -1.6304469 19
0.26620483 6.4855804 -1.6225162 19
0.54437256 6.4963913 -1.6249385 19
0.87387085 6.468605 -1.6215825 19
1.1639557 6.4069672 -1.612802 19
2.2767639 6.3880005 -1.6107106 20
-5.2305145 6.5640259 -1.673367 30
-4.9286041 6.4090805 -1.6709733 29
-4.6712952 6.5124969 -1.6755295 28.5
-4.412323 6.6072083 -1.6808186 28
-3.9476013 6.4525833 -1.6596804 26.5
-3.5711823 6.3805847 -1.6610341 25
-3.4051208 6.4650497 -1.6525831 25
-3.2458801 6.5635452 -1.6489019 25
-5.2778625 6.4826889 -1.2867384 36.200001
8.3572693 6.4272766 -0.28611851 48.857143
8.3549194 6.4576569 -0.10572338 51
-5.1395111 6.4493942 -0.064607143 56.25
-5.0887909 6.3087845 -0.0062432289 57
8.9277496 6.4149475 0.44757438 58
-5.1394653 6.4367371 0.082381725 59
-5.0891418 6.3000031 0.16312695 60.5
8.9057159 6.3998947 0.54433441 59.333332
-2.8898621 6.1263123 -1.7553382 20
-1.7527466 6.2365417 -1.7110119 19
-1.5828094 6.2416382 -1.694438 19
-1.2675934 6.2956467 -1.6804209 19
-0.93887329 6.325943 -1.6627579 19
-0.79478455 6.337883 -1.6562405 19
-0.14500427 6.243454 -1.6380405 17.5
0.25975037 6.3121567 -1.6234722 18
0.52790833 6.3021545 -1.6206284 18
0.84762573 6.2792816 -1.6181507 18
1.1287231 6.2216568 -1.6107554 18
2.3365479 6.2271194 -1.6092167 19.5
2.6512451 6.229599 -1.607625 20
2.7725525 6.100296 -1.5882106 20
-5.1531219 6.2136307 -1.6574368 29.333334
-4.7724762 6.2314606 -1.6810265 28
-4.2351074 6.2022934 -1.6620936 27
-3.6517334 6.1682053 -1.6712637 24.5
-3.3981628 6.2054291 -1.6770115 24
-3.2410889 6.2943878 -1.6711812 24
-5.2210846 6.1450729 -0.73158073 45.200001
8.3961945 6.0849152 -0.16950655 50
8.41008 6.089798 -0.10386705 51
8.4599152 6.0710983 -0.019497395 52.5
8.9877167 6.0289078 0.12843943 54
8.9444733 6.2346344 0.44404221 58
9.0454559 6.0558929 0.30425978 56.400002
8.9626465 6.1364365 0.56046319 59.666668
9.0157776 5.9950714 0.51394248 59
-2.7171783 5.9343338 -1.7608333 19
-2.584549 5.7955933 -1.7708292 18
-1.5257874 5.8407669 -1.7107496 16
-1.2720337 5.8851852 -1.6985393 16
-0.98066711 5.9007187 -1.6781387 16
-0.64129639 5.8612671 -1.6607389 15.666667
-0.35066223 5.845047 -1.6499553 15.5
-0.16711426 5.9202499 -1.6391015 16
2.0723267 5.9199829 -1.6178613 17.5
2.3143616 5.9112473 -1.6123195 18
2.569931 5.8476562 -1.6048484 18.333334
-5.1352997 5.9756622 -1.6085167 29.5
-4.9506226 6.029274 -1.6810384 28
-4.5553589 5.8950424 -1.6665206 27
-4.397934 6.0528259 -1.6642499 27
-3.9513092 5.7826157 -1.6872854 24
-3.7704773 5.9391251 -1.6856356 24
-3.4139404 5.8753204 -1.6711159 23
-3.1800385 5.9015274 -1.6694322 22.5
8.4702911 5.921257 -0.51186085 45.5
9.0865021 5.9052582 -0.58066034 45.25
-5.1702118 6.0002899 -0.76698494 44
8.3635712 5.9948425 -0.31692553 48.5
8.494812 5.8588028 -0.41484022 47
9.0990448 5.8233261 -0.32069921 48.5
9.0736542 5.8571396 0.010008335 52.75
-4.972229 5.8063431 -0.1145854 55.599998
9.0939178 5.8551788 0.30128574 56.400002
-4.9630585 5.77005 0.084628105 59
9.0496521 5.8246841 0.54276633 59.5
-2.7315216 5.730484 -1.7771249 18
-1.4702759 5.6393509 -1.6993895 15
-1.329483 5.6888657 -1.699285 15
-1.0426178 5.7311783 -1.6856842 15
-0.75646973 5.7421265 -1.6670799 15
-0.41287231 5.7441254 -1.6486111 15
-0.15049744 5.7444611 -1.6382995 15
2.3374481 5.588974 -1.627768 16
2.4807892 5.6022873 -1.6264915 16.5
-5.0588531 5.6571426 -1.6458449 28
-4.8535614 5.5836334 -1.6724687 27
-3.9938202 5.5892181 -1.687335 23.5
-3.6378784 5.5817947 -1.6812272 22.5
-3.3812103 5.5778656 -1.6811504 21.666666
-3.1612701 5.6024551 -1.6784964 21
-5.0698547 5.5506439 -0.91534615 41
-5.0830994 5.5522461 -0.82259369 42.5
-5.0693512 5.5524368 -0.86272573 42
9.1659088 5.5493469 -0.31452036 48.599998
-4.9862671 5.6645966 -0.42655039 49.833332
9.151886 5.5449448 0.019062996 52.857143
-4.9265442 5.578949 -0.11589098 55.5
9.1670074 5.5263214 0.20734167 55.400002
9.4445038 5.6101227 0.4356916 58
-4.9502563 5.6333542 0.078141689 59
9.4314575 5.5992203 0.54421759 59.5
-2.6660767 5.279213 -1.7703171 15
-2.4645691 5.2963715 -1.7634263 14.6
-2.2158051 5.4487457 -1.742938 15
2.1374969 5.4410324 -1.6111865 15
2.3382568 5.3481598 -1.6099157 15
-4.5449219 5.2070312 -1.6986227 24
-4.2581787 5.3251495 -1.6895618 23.5
-3.944397 5.2995682 -1.6832399 22.5
-3.6904144 5.2845306 -1.6845813 21.5
-3.4623108 5.385643 -1.6850309 21
-3.0487518 5.228981 -1.7076979 18
-2.851181 5.385376 -1.7103167 18
-4.9884796 5.2829208 -0.88338041 41
9.2501526 5.3205032 -0.55073786 45.5
-5.0081329 5.306015 -0.81991625 42.5
9.2343445 5.2615433 -0.34662724 48.200001
-4.8392029 5.2431717 -0.39936638 50
9.230423 5.2880707 0.016860962 52.799999
9.316803 5.2291718 -0.13054371 51
-4.8460236 5.3290634 -0.046516895 57
9.2507935 5.2074966 0.20881128 55.5
9.4211426 5.3142242 0.401721 57.5
-4.836792 5.2598267 0.077240467 59.333332
9.489151 5.2851639 0.50405788 59
-2.6658325 5.0000229 -1.7740488 13.5
-2.5850067 5.0311432 -1.79074 13
-4.6562805 5.0697632 -1.6986856 24
-4.3561859 5.0308228 -1.6866713 23
-4.0046844 4.9576187 -1.6829948 21.5
-3.8033752 5.0494385 -1.6809969 21
-3.3127136 5.0067596 -1.7062554 18
-3.0154114 4.9318466 -1.6942787 17
-2.8147125 4.9174042 -1.7021508 15
-4.9248047 5.0777435 -1.2138 34
-4.8996277 4.9628372 -1.0550089 37.222221
9.3088989 5.0491486 -0.61142588 44.5
9.3571014 4.9071884 -0.56580687 45.25
-4.9187775 5.0286789 -0.78903008 42.5
9.2935638 5.0265274 -0.34394598 48.333332
9.3347931 4.9049454 -0.31061697 48.599998
-4.7704468 4.97686 -0.39523554 50
9.2848206 5.0208282 0.028617859 53
9.3457336 4.9104385 -0.037459373 52.200001
-4.7442017 4.8984222 -0.12452984 55.5
9.2815399 5.0152054 0.17466688 55
9.37117 4.9001007 0.26560831 56.25
-4.7526093 4.8586426 0.039454937 59
9.4365387 4.9457016 0.55904269 60
9.4380035 4.9900742 0.75106812 62
-2.6769714 4.7483978 -1.7282133 13
-2.559433 4.8107986 -1.7738791 12
-4.645813 4.6822357 -1.6257415 24.4
-4.2888794 4.7273178 -1.6802745 22
-4.0940247 4.7113724 -1.6778493 21
-3.6987457 4.6130905 -1.7022042 18
-3.4355316 4.7201767 -1.6987443 17.5
-3.1927185 4.7161102 -1.6950493 16.333334
-2.831131 4.6691055 -1.7171798 13.5
-2.5652008 4.5658798 -1.7036581 12
-4.7804413 4.6266327 -1.4460521 28
-4.8180389 4.6816711 -1.013195 37.5
9.3894043 4.7165833 -0.60170555 44.666668
-4.8498535 4.6663055 -0.75468111 42.5
9.3890686 4.6626434 -0.2684598 49.200001
-4.690567 4.6459351 -0.39787817 49.875
9.4046783 4.6591263 -0.034697056 52.285713
-4.6956482 4.6154404 -0.12162113 55.454544
9.3899994 4.6449127 0.18917465 55.333332
9.6431885 4.7049103 0.41647053 58
-4.7009583 4.6266556 0.087752342 60.142857
9.6804199 4.7034225 0.51329255 59.333332
-2.4169312 4.4378738 -1.7844272 8.333333
-4.6053467 4.4712982 -1.6775746 22.5
-4.2523193 4.411972 -1.6828327 20.666666
-4.0079193 4.3948364 -1.699347 19
-3.7237244 4.4318542 -1.7006435 17.5
-3.4430847 4.4665298 -1.6917491 16.666666
-3.1110382 4.4336395 -1.7101312 13.8
-2.6998291 4.4496689 -1.6992264 12
9.5004883 4.3051529 -0.6010685 44.799999
9.4626312 4.3283997 -0.34160995 48.5
-4.615097 4.3851547 -0.37744665 50
9.4700775 4.3399734 0.0095262527 52.833332
-4.6112976 4.3616943 -0.12566805 55.5
9.4715118 4.3338013 0.18344593 55.333332
9.7734833 4.3622589 0.41008043 58
-4.6176758 4.3678741 0.095719337 60.5
9.8139038 4.4127808 0.52510738 59.5
-4.5757751 4.1464996 -1.6277328 22.285715
-4.3127441 4.1172333 -1.6932631 20
-3.9094543 4.0177383 -1.6936431 17
-3.7065887 4.0927963 -1.6949725 16.25
-3.411972 4.1172104 -1.7090716 13.75
-3.0930786 4.004509 -1.6998897 11.5
-2.8253479 4.1131439 -1.7026439 10.5
-2.4840546 4.0362473 -1.7175241 7.5
2.1075592 3.9975433 -1.405386 10
-4.6505127 4.1197662 -1.2761464 30.5
2.0783997 4.100296 -1.1950846 16.625
2.1398773 4.2095184 -1.1381769 19
-4.6457367 4.0897446 -0.96400213 37
9.5565796 4.0831985 -0.58347988 45.25
-4.6675873 4.0844803 -0.85587311 39
9.5414886 4.033287 -0.36279297 48.333332
-4.5534973 4.0949402 -0.39117765 49.375
9.5549164 4.0395508 -0.027833462 52.57143
9.637146 4.0180283 -0.1466341 51
-4.5463409 4.0639038 -0.16334391 54.76923
9.5571442 4.0041656 0.26424789 56.5
-4.5530243 4.0954056 0.067492008 59.857143
-4.4988403 3.9000397 0.12861681 61.5
9.549408 4.0019226 0.5179913 59.75
9.5928802 3.9800644 0.599334 61
9.5609131 4.0739899 0.73927164 62.333332
-4.5177612 3.8444748 -1.6147199 21.4
-4.1546936 3.6846085 -1.6958694 17
-3.9908752 3.797348 -1.6969256 16.5
-3.6917419 3.8204041 -1.6985397 15
-3.2840424 3.8933792 -1.6948104 12
-3.1266327 3.7811584 -1.7038078 10.5
-2.7169495 3.7478638 -1.7125897 7
-2.5362549 3.8438034 -1.7128568 6.5
2.1655579 3.7985458 -1.3550935 10
2.1235046 3.8810883 -1.1293168 17
2.1437225 3.8423538 -1.1190853 17
-4.5349274 3.640625 -1.1738863 31
2.1063995 3.825058 -0.93560505 22.75
2.186676 3.7018127 -0.80707169 26.5
9.572113 3.8784332 -0.32180595 48.799999
9.6356354 3.7050247 -0.21622276 50
-4.4981079 3.8726501 -0.3496747 50
-4.4541779 3.7770844 -0.35509777 50
9.5865173 3.7918777 0.02973175 53.166668
9.6635742 3.7242203 -0.077499866 52
-4.4638214 3.7647781 -0.19819784 53.900002
9.5959625 3.7927475 0.15233755 55
9.6220703 3.7466888 0.25870752 56.5
-4.4721985 3.7615662 0.10050774 61
9.5653076 3.7926178 0.50626874 59.666668
9.6278992 3.6629944 0.52556324 60
9.6197052 3.7831955 0.71378255 62
-4.237381 3.5725861 -1.6993489 17
-3.9836731 3.4879379 -1.7026019 15.166667
-3.6621552 3.5399399 -1.7027411 13.333333
-3.3696594 3.5389786 -1.7039938 10.666667
-3.0754089 3.493248 -1.7070532 8
-2.7989807 3.5073929 -1.7098169 5.8333335
-2.5743103 3.5992126 -1.7073531 5
-4.5196075 3.6222992 -1.2425852 29.5
2.2096558 3.495575 -1.102191 15.333333
-4.4975433 3.4690323 -1.1374898 31.25
-4.4699097 3.5176773 -0.93267202 36
2.2206573 3.4342651 -0.90392971 21.727272
-4.4756927 3.5062027 -0.85880327 37.666668
2.3038788 3.3630219 -0.70948601 28
-4.3733215 3.456192 -0.42570543 48.272728
9.6889343 3.3810349 0.085029125 54
-4.3728333 3.4284363 -0.17658281 54.416668
9.6958466 3.4601822 0.26753473 56.714287
-4.4161682 3.5137787 0.11387491 61.5
9.4556427 3.5428696 0.51681852 60
9.7090149 3.4114914 0.54547834 60.400002
9.7110901 3.4438858 0.7048583 62
-4.2418823 3.1454086 -1.6947479 15.666667
-4.0446014 3.2624359 -1.7174354 14.333333
-3.7912903 3.2351913 -1.6950388 13
-3.4730682 3.2564545 -1.7032199 10
-3.0386658 3.3295746 -1.7055025 6.5
-2.8961792 3.2912979 -1.7100453 5
-4.3739471 3.2574387 -1.3418717 25.666666
2.2970123 3.191658 -1.191433 10.5
-4.4742737 3.3172379 -1.2214503 29
2.2452545 3.1833649 -0.76018286 25
9.8206482 3.1020889 -0.54281425 46
2.2102509 3.2461319 -0.72366571 26.5
9.7659607 3.1135712 -0.36391068 48.5
-4.2900543 3.2409821 -0.36269379 49.5
9.7865601 3.124939 -0.045657635 52.5
-4.2847443 3.1202927 -0.19494295 54
9.7744141 3.141243 0.25980711 56.700001
-4.3110962 3.1662369 0.058941841 60.666668
9.7523651 3.1300964 0.49041986 59.666668
9.7827148 3.1516647 0.69689894 62
-4.1932983 2.9343185 -1.7217622 14
-3.9539795 2.8972321 -1.6967139 12.75
-4.2434692 2.8038254 -1.3672991 23
-4.3168793 2.8311234 -1.0498104 31.200001
2.3260345 2.8992615 -0.89705706 19
-4.2869568 2.8565369 -0.87385654 35.5
2.32901 2.8524246 -0.72754288 24.666666
9.8293915 2.9261856 -0.3944087 48
-4.2492828 2.9409409 -0.50062323 45.833332
-4.1525574 2.7485733 -0.38158464 49
9.8284607 2.8732605 -0.01214695 53
-4.2255402 2.9602509 -0.16833353 54.666668
-4.1591187 2.7718353 -0.26030684 52
9.8483124 2.8885651 0.16128492 55.5
9.9340973 2.8612213 0.37156248 58
-4.2249146 2.9346237 0.067337513 61
-4.1782837 2.8237152 0.096572876 62
9.8155823 2.9211884 0.49412251 59.799999
9.977066 2.8577881 0.54039383 60.5
9.8340759 2.957428 0.69205475 62
-4.2995758 2.5869827 -1.6762805 14.666667
-4.0072784 2.5828018 -1.7009544 11.8
-3.6839294 2.5275192 -1.711493 8.25
-4.2094574 2.6342392 -1.3366718 23
-4.1331177 2.4597092 -1.2851272 23.25
-4.2186432 2.6468887 -1.1483288 28
2.3903198 2.6123886 -0.85326242 19
2.4628601 2.6399002 -0.84543467 20
3.3092804 2.5088425 -0.76287937 27
3.5402374 2.6271133 -0.75557375 29
-4.2107239 2.5654144 -0.76257992 38.400002
-4.1636658 2.4744415 -0.76455688 38
2.5515747 2.4797211 -0.63236141 27.5
-4.0633087 2.5146179 -0.41145611 47.599998
7.656662 2.6125717 -0.13107395 51
9.8762054 2.6387634 0.0021915436 53
9.9047394 2.5791397 0.065149307 54
-4.0673676 2.5239258 -0.2134881 53.400002
9.8922272 2.6486206 0.1251111 55
9.9449768 2.5970383 0.18429899 56
-4.052536 2.3195038 -1.6763287 12
-3.6894836 2.3086472 -1.7085624 7.4000001
-3.3847809 2.2409668 -1.7294917 3
-4.1706238 2.1892624 -1.283752 23
-4.0718079 2.1732254 -1.4000502 19
-4.0885315 2.2336197 -1.2183609 24
2.5272522 2.2869492 -0.82890081 19
3.569931 2.3351746 -0.75465155 28
3.6979218 2.3608398 -0.78349924 28
-4.0632324 2.1771698 -0.73247862 38
2.5426331 2.3259888 -0.6720438 25.200001
2.8006744 2.1617508 -0.68539572 26
3.3064423 2.4161682 -0.71091843 29
-4.0180511 2.1699753 -0.51488876 44
-3.9932709 2.2821808 -0.23219156 52.727272
-4.055603 2.3744354 -0.023238182 59
-4.0793457 2.0539398 -1.6511235 12
-3.7238617 1.9545059 -1.7041488 6.5
-3.4895782 1.9955063 -1.7284822 3
-4.0246887 1.9825974 -1.4198298 17.777779
-4.0265045 2.0207977 -1.2217398 23
2.5979767 2.0081253 -1.0106077 10.666667
2.6295929 1.9512329 -0.72322845 22
2.7334595 1.9712296 -0.64953518 26
-3.9574585 2.0411835 -0.47079897 45.400002
-3.8682556 1.8942337 -0.35453796 49
9.684433 1.8538513 -0.1236496 52
-3.9015961 1.9966736 -0.16594505 54.666668
-3.8689728 1.8810272 -0.215909 53.099998
9.6566162 1.8579636 0.053163528 54
-3.9168701 2.0327988 -0.017168522 59.5
-3.8874207 1.7282715 -1.7037864 8
6.0591888 1.5793839 -1.3733301 24
5.8763428 1.6369324 -1.1817226 27.5
6.0552673 1.6836014 -1.126822 29
6.341095 1.7546692 -1.1340017 30
2.6725464 1.7005768 -0.98713875 10.333333
2.759613 1.5831146 -0.87118149 15.25
5.9410095 1.5625229 -0.77348232 36
2.6890564 1.6828918 -0.75143909 20.333334
2.7770233 1.6317062 -0.66169405 24.6
5.956543 1.5469284 -0.67476368 38
-3.9012451 1.6840286 -0.47691059 45
2.8830872 1.7479248 -0.28817463 40.5
10.156097 1.5815201 -0.049472809 53
-3.8430023 1.6610413 -0.12764215 56
10.164429 1.6618958 0.18772745 56.25
10.204483 1.6280823 0.24272728 56.666668
-3.836319 1.7220459 0.03202343 61.400002
10.130722 1.7162781 0.41197252 59
-3.7822571 1.2957687 -1.6992226 6.5
5.2785797 1.3517227 -1.4190168 19
5.6081238 1.4137955 -1.4246917 21
5.8608704 1.4427719 -1.4015756 22.5
6.0848083 1.4729004 -1.3780313 24
6.0245514 1.3406982 -1.2419848 27
6.2003784 1.4496918 -1.158463 29
6.4579468 1.4246826 -1.2063217 29
2.8021393 1.3561783 -0.90490961 13.777778
2.857666 1.3486252 -0.69354296 23.25
3.0294495 1.3376083 -0.60992098 28
6.1759949 1.2399597 -0.42395353 44
10.253159 1.2902985 -0.36606932 49
-3.8628235 1.2989731 -0.48963499 44.5
2.9972534 1.4610748 -0.30878115 40
10.2686 1.2461777 -0.053997517 53
-3.8475342 1.30513 -0.16694212 55
-3.8094482 1.2678986 0.034386635 61.5
-3.9624786 0.98766327 -1.6826286 8.666667
-3.7364655 1.1121445 -1.7185116 5
4.0544281 1.0564575 -1.5421686 5
4.3989563 1.0267868 -1.5122647 9.666667
4.7152557 1.0534744 -1.4785013 13.5
5.0386353 1.0910339 -1.4675608 16
5.3104553 1.0647354 -1.453639 18
5.636795 1.0852661 -1.4279866 21
5.9136963 1.0888062 -1.4046097 22.666666
6.1292114 1.0895004 -1.3864093 24
-4.0439758 1.049057 -1.4731116 15.5
6.0118713 1.2290649 -1.2379799 27
6.1829376 1.0851059 -1.21316 28
6.3786621 0.94922638 -1.1911025 29
-4.5228577 1.0887909 -1.1757884 27.5
-3.9998779 1.0706787 -1.1332932 25.200001
-3.8548431 1.1865921 -1.1415734 24
2.8838959 1.1773987 -0.9465394 12.6
3.1343689 1.1041794 -0.89051199 17.5
6.3008575 1.0689468 -0.85470533 35.5
-3.9582825 0.99035645 -0.74111891 36.5
2.9241486 1.1931686 -0.70104218 23.25
6.1613312 1.1904144 -0.5150857 42.5
-3.9168396 1.1801453 -0.63442278 40
10.290985 1.1479263 -0.056314945 53
-4.2410889 0.93056488 -0.12968683 57
-3.8603058 1.1449661 -0.20152426 53.833332
10.294525 1.1367493 0.17968941 56.200001
-4.2366028 0.91588593 -0.050626755 59
-3.8279266 1.1976395 -0.066765308 58
10.240051 1.1495209 0.4280169 59.5
-5.1735229 0.89826965 -1.7596407 18
-5.041748 0.8815918 -1.7604098 17
-4.3514862 0.66108704 -1.6276774 14
-3.9524384 0.8146286 -1.7031279 7.8571429
-3.7535095 0.84155273 -1.7500849 3.6666667
4.1300201 0.84584045 -1.585844 4.8333335
4.3753662 0.75804901 -1.5155921 9.25
4.7372589 0.77945709 -1.4831028 13.5
5.0620575 0.75058746 -1.4727802 16
5.3225098 0.77785492 -1.4563055 18
5.6507721 0.73963165 -1.4325099 21
5.8748322 0.80820465 -1.4098601 22.333334
6.2038269 0.76470184 -1.4064879 24
-4.3205261 0.65105438 -1.488987 17
-4.1350555 0.72939301 -1.5253263 14.5
6.2965851 0.82870483 -1.1754346 29
6.6850128 0.85870361 -1.2009425 30
-4.5905304 0.74584961 -1.2570887 26
-4.2588501 0.63910675 -1.1603003 26
-4.0409088 0.88337708 -1.1230755 25.5
-3.9998932 0.91765594 -0.76970148 36
8.3924103 0.6832428 -0.19106388 51
8.4218292 0.66949463 -0.20954514 51
8.0318909 0.65939331 0.24799252 58
8.0653076 0.68431854 0.36223888 60
-4.8247375 0.44762421 -1.7843022 14.5
-4.2298584 0.50055695 -1.6745481 11.5
-4.0342865 0.50926971 -1.7216616 8
-3.7832184 0.54219055 -1.7572317 3.6666667
4.1893616 0.55056763 -1.5343909 7
4.3796997 0.48597717 -1.5224614 9.1999998
4.6893616 0.56700134 -1.4920435 12.5
5.0628204 0.46948242 -1.4775195 16
5.3351135 0.49213409 -1.4649134 18
5.5008698 0.46029663 -1.4529243 19
5.8860016 0.50743103 -1.4174328 22.333334
6.2190857 0.46057129 -1.4168916 24
-5.5001068 0.36650085 -1.4098802 28
-5.2933807 0.34972382 -1.4075184 27
-4.2494812 0.48223877 -1.5113459 15.75
6.3679504 0.56401062 -1.0898075 31
-4.8231964 0.37799835 -1.1689458 30
-4.6503906 0.4756546 -1.1981072 28
-4.3551941 0.42050934 -1.1474133 27.25
-4.1550293 0.61001587 -1.2093191 24
8.2754669 0.42728424 -0.19103098 51
4.2684784 0.14771271 -1.6820955 4
-4.6155853 0.094100952 -1.6782379 15
-4.2905579 0.17375183 -1.7173152 10.75
-4.0723724 0.2360611 -1.7312708 8
-3.8250122 0.20829773 -1.7535048 4
4.1799011 0.32492065 -1.5359068 7
4.3735962 0.19572449 -1.5297685 9.166667
4.6852264 0.23766327 -1.5002627 12.5
5.0545044 0.13439941 -1.487412 16
5.3246155 0.16199493 -1.4724588 18
5.4846649 0.11710358 -1.4603157 19
5.9342041 0.21582794 -1.4255433 22.666666
6.2189178 0.21172333 -1.4249544 24
6.3780518 0.20943451 -1.4087915 25
-4.4384003 0.10269165 -1.5269265 17
6.4279785 0.15099335 -1.2215214 29
6.7255402 0.14315033 -1.2289572 30
-4.3764801 0.16568756 -1.2403235 24.875
-4.3172607 0.28993225 -0.83320618 36
8.2956085 0.29484558 -0.36362553 48
8.3000031 0.24784088 -0.21587992 51
-3.8673401 0.012145996 -0.14361906 57
-3.7971344 0.14002228 -0.04608202 60
-4.9065399 -0.11004639 -1.7288618 16.5
-4.5673981 -0.070426941 -1.7086768 14
-4.2187195 -0.057044983 -1.7459745 9.333333
-4.0260925 -0.056877136 -1.7367473 7.3333335
-3.8332062 -0.018966675 -1.7576909 4
4.2284241 -0.041366577 -1.6769958 4
4.3169556 -0.1103363 -1.5789886 7.7142859
4.7089233 -0.11600494 -1.5103402 13
5.0461884 -0.12115479 -1.488801 16.200001
5.304245 -0.06918335 -1.478179 18
5.49086 -0.07963562 -1.4719825 19
5.9168549 -0.097206116 -1.43506 22.666666
6.1980896 -0.11501312 -1.4348855 24
6.4295959 -0.12967682 -1.4367528 25
-5.2133179 -0.19615936 -1.5000677 24
-4.5387573 -0.14170837 -1.3669505 23
-4.5513 -0.14803314 -1.3154669 24.5
-4.4344788 0.015647888 -1.3284683 23
6.619751 -0.096984863 -0.96711111 35
6.6666412 -0.14457703 -0.88551521 36.666668
-4.5525665 -0.11422729 -0.87567854 36.444443
8.375 -0.14473724 -0.16429138 51.799999
8.4520111 -0.03729248 -0.13982964 52
-4.1430969 -0.27957153 -0.35423946 51
8.4861603 -0.08404541 0.10126495 56
-4.8712921 -0.36703491 -1.7356219 16.25
-4.5980835 -0.4083252 -1.7362003 14
-4.2676392 -0.42214966 -1.7611127 10
-4.067215 -0.41121674 -1.7638092 7.5
-3.8492432 -0.32297516 -1.7751422 4
4.1737518 -0.38632965 -1.6692381 4.3333335
4.4104004 -0.37004852 -1.5799794 8.833333
4.7416382 -0.41690826 -1.5110197 14
4.9884033 -0.43279266 -1.501296 16
5.3228455 -0.39058685 -1.4838047 18.333334
5.4661407 -0.27471924 -1.4764986 19
5.8265381 -0.42926025 -1.4490337 22.25
6.1735077 -0.44071198 -1.4473877 24
6.405304 -0.47290802 -1.4505696 25
-5.1579132 -0.466362 -1.448247 26
-4.9487305 -0.53611755 -1.4330602 25
-4.696701 -0.48070526 -1.3990521 24
-4.9195404 -0.54029083 -1.2456899 29.5
-4.8178101 -0.56362152 -0.92509365 37
-4.7031708 -0.39765167 -0.89282513 37
-4.4654846 -0.31639862 -0.55771255 45.599998
-4.3310547 -0.58798218 -0.31064939 53
-4.1325378 -0.29271698 -0.32784557 52
-5.1247864 -0.73605347 -1.7684011 18
-4.835434 -0.60684204 -1.7259235 16.5
-4.47789 -0.68647766 -1.7559032 13
-4.3058472 -0.61125183 -1.7650642 10.5
-3.6888885 -0.61949921 -1.8309536 3
4.1529541 -0.6909256 -1.6616192 5
4.4070435 -0.71153259 -1.6067839 8.75
4.5717773 -0.62100983 -1.5258327 12
5.0296173 -0.68453217 -1.4890757 17
5.3345947 -0.71472931 -1.4941044 18.666666
5.7392426 -0.75762177 -1.4624481 22
5.8579254 -0.70858765 -1.4606948 22.666666
6.1415253 -0.65959167 -1.4548969 24
6.3618011 -0.76992035 -1.4611974 25
-5.0114136 -0.64589691 -1.4129062 26
-4.9205475 -0.79893494 -0.91642141 38
8.0600739 -0.63928223 -0.60565662 44.5
-4.8718109 -0.83217621 -0.66227293 44.799999
8.6569519 -0.66627502 -0.16215086 52
-4.3263092 -0.66927338 -0.26063299 54.75
10.792862 -0.89521027 0.14119291 56
-4.2930298 -0.85710144 -0.058658123 61
10.765701 -0.88237762 0.33799601 59
4.1277161 -1.0118942 -1.6599884 5.8000002
4.3899231 -0.94678497 -1.6382208 8.3999996
4.6929321 -0.99721527 -1.5338864 13.5
5.0298309 -1.0086746 -1.5080872 17.333334
5.2499084 -0.98625183 -1.5072727 18.5
5.6977539 -0.93501282 -1.4671307 22
5.9006195 -1.0727615 -1.4694934 23.333334
6.1560516 -0.97738647 -1.4655471 24.333334
6.4447784 -1.0528641 -1.4315877 26
6.7017365 -1.1111908 -1.3536382 29
