# .PCD v0.7 - Point Cloud Data file format
VERSION 0.7
FIELDS x y z intensity
SIZE 4 4 4 4
TYPE F F F F
COUNT 1 1 1 1
WIDTH 1243
HEIGHT 1
VIEWPOINT 0 0 0 1 0 0 0
POINTS 1243
DATA ascii
-2.9395142 6.1786499 -1.5701342 29.666666
-3.1920013 5.9656219 -1.554342 36.333332
-3.3724823 5.8661728 -1.5314896 51
-3.6341705 5.6728668 -1.5254533 34.25
-3.871109 5.6244049 -1.5220866 51
-4.1345062 5.4995728 -1.5181088 51
-4.4403992 5.1857605 -1.5008953 41.75
-4.641983 5.111496 -1.4971635 35.5
-4.9138947 4.9456787 -1.4926004 33.666668
-5.222702 4.8039246 -1.4873974 37.400002
-5.4533081 4.5776901 -1.48207 41.388889
-5.6351318 4.4025116 -1.4797106 42.07143
-5.8648682 4.3298111 -1.4578276 26.75
-6.125351 4.1808014 -1.477175 25
-6.5029297 3.8509064 -1.4975233 27
-13.851868 -0.61801147 -1.6405549 23
-14.042221 -0.83626556 -1.6467323 22
-18.837982 -3.6379547 -1.762392 23
-18.988297 -3.8477173 -1.7775252 20.5
-19.5448 -4.0571365 -1.7698407 28
-22.065491 -5.7873459 -1.9362946 16
-22.244705 -5.8506851 -1.7877989 22.133333
-22.447678 -6.0702591 -1.7712934 28
-22.820618 -6.2829056 -1.8996692 24.5
-23.546112 -6.5639954 -1.9934552 13
-23.769394 -6.6799698 -2.0285931 28
-24.273544 -7.2737427 -2.065836 7.6666665
-24.583969 -7.2974396 -2.0117178 10.166667
-24.787369 -7.4939194 -2.0459223 11.5
-24.92984 -7.6621552 -2.0751007 11.5
-25.233124 -7.6643906 -2.0723681 12.25
-25.737823 -8.0576553 -2.0939879 10
-26.310501 -8.2455826 -2.1028101 10
-27.975708 -9.3124237 -2.0999925 21.049999
-42.739548 -18.454124 -2.2951739 43.400002
-42.938934 -18.60479 -2.2070887 29
-43.56131 -18.942131 -2.2879438 23
0.69876099 8.2411346 -1.0594442 43
-4.9850769 5.0229721 -1.163861 36
-5.5924683 4.6105881 -1.2645216 47.333332
-5.6857147 4.4376755 -1.3248224 43.220238
-5.8721313 4.2164764 -1.2926414 40.53846
-6.0787354 4.0301056 -1.3494897 28.083332
-6.4710693 3.7726898 -1.4526296 24
-7.7630157 3.102356 -1.2194669 49
-14.146088 -0.91095734 -1.5211086 25
-15.354416 -1.6533737 -1.3877718 27
-21.588455 -5.6277542 -1.4626982 27
-22.008438 -5.7192612 -1.6842122 23.875
-22.198227 -6.013443 -1.4464922 25
-23.376297 -6.5292816 -1.587796 25
-23.587372 -6.618454 -1.5508621 23.5
-42.979385 -18.632858 -2.0675867 23.375
-43.225952 -18.75795 -1.9572091 29
-43.450272 -18.890472 -2.0504346 28.25
-64.09848 -31.906822 -2.270225 57.366669
-64.206673 -31.956177 -2.3328495 57
6.4505768 12.016121 -0.78320861 48.555557
-5.5396729 4.6265869 -0.97322178 47
-5.7023468 4.5687866 -1.0048423 48.875
-5.7731781 4.1953125 -0.91730475 47.5
-7.7749634 3.08815 -0.99285078 50.5
-15.668442 -1.6777725 -1.0873048 43
-16.213837 -2.1675949 -1.0517476 37.5
-64.112343 -31.863533 -2.0658092 58.599998
-64.217659 -31.975021 -1.9867158 58.599998
6.4469299 11.922348 -0.50539684 51.111111
6.4152679 11.888008 -0.45930481 52
-5.2116699 4.6143723 -0.70197916 43.25
-5.5802307 4.555336 -0.73583746 49
-5.7001343 4.4746475 -0.63079619 50.944447
-5.9237213 4.3671875 -0.6598506 50
-6.068222 4.0380478 -0.64676785 44.125
-13.055557 -0.020980835 -0.79365826 42.333332
-13.356613 -0.25614929 -0.69821143 44
-14.884613 -1.1836624 -0.83664513 41.833332
-15.502106 -1.6034775 -0.79787636 57
-15.713974 -1.7946091 -0.9512434 38.799999
-15.806625 -1.9000778 -0.88392425 42.333332
-16.171814 -2.0162048 -0.9459703 41.142857
-16.408386 -2.1996307 -0.89916301 38.833332
-64.116486 -31.874146 -1.6688099 59
-64.243469 -31.961998 -1.6525939 59.5
6.4674988 11.872238 -0.19534397 55.666668
6.4012604 11.858429 -0.18462682 54.859997
-5.3291931 4.7801743 -0.29817581 54
-5.7576599 4.4438705 -0.44683599 53
-5.8662109 4.3180237 -0.51108932 52
-13.667206 -0.61422729 -0.45159888 51
-15.357361 -1.5478439 -0.58991575 49.229168
-15.672302 -1.7312775 -0.52585721 52.006943
-15.895081 -1.9318924 -0.5231061 51.746212
-64.036575 -31.813751 -1.4944632 59
-64.273056 -31.983994 -1.4485154 60.648151
7.1060944 12.173492 0.24439192 57
6.3975525 11.785278 0.017131567 56.166668
-5.2490082 4.7827835 -0.15406752 56.3125
-5.5913391 4.5488892 -0.11476493 58
-8.1492462 2.9470596 -0.24245048 54
-8.1882935 2.9799957 -0.052923441 54.833336
-13.644272 -0.56270599 -0.22670221 53.833332
-13.802353 -0.55132294 -0.30172086 52.5
-14.218445 -0.7650528 -0.28122663 53.75
-15.363556 -1.6585388 -0.18748426 55.28125
-15.627487 -1.7429581 -0.24622774 54.900002
-15.797302 -2.0042572 -0.1844418 58
-64.281746 -32.033653 -1.1103687 61.21212
7.1393127 12.235428 0.43123555 59.375
-4.7842255 5.0979385 0.31897616 60
-4.8918915 4.9480743 0.27181888 60.666664
-8.1354828 3.0042648 0.15625739 56
-8.2041321 2.908371 0.29419708 56
-13.308716 -0.2260437 -0.0023546219 58.375
-15.442184 -1.6621399 0.003993988 57.916668
-15.646713 -1.6984558 0.034853697 59
-64.308891 -32.051598 -0.84002972 61.111111
7.141098 12.245796 0.75221133 61
-4.7020111 5.1189957 0.58831978 61
-4.7610016 4.7917938 0.58948231 61
-8.089798 2.8986816 0.50772285 57
-15.489059 -1.7254791 0.23104978 59.666668
-15.592865 -1.6101837 0.36140966 60
-64.363754 -32.018394 -0.61847234 61
-64.436691 -32.204727 -0.55204487 60.599998
-8.4251709 2.6939774 0.68164325 58
-4.7572937 4.982811 0.98471761 62
-7.6623077 3.2561493 1.816149 61
-13.211594 -0.2427597 1.6380708 62
-7.5782318 3.1544189 2.1041379 62
-13.157822 -0.17329407 1.7949414 63
-7.521698 3.2528992 2.2933445 63
-7.6541901 3.0135956 2.2718728 63
-38.783905 -15.727463 -2.6204379 4
-39.96933 -16.366226 -2.6440268 29
-40.764786 -17.014862 -2.6904521 40
-41.197281 -17.329109 -2.7002265 41
-41.927826 -17.65979 -2.6758451 23
-42.445236 -18.090546 -2.7020626 25.5
-43.305298 -18.512451 -2.7303324 19.083334
-44.080734 -19.038963 -2.7492845 16
-44.284378 -19.192596 -2.7795811 31.208334
-44.681229 -19.422691 -2.7656715 21
-44.837677 -19.580444 -2.7595856 22
-45.143417 -19.674583 -2.7778513 23.666666
-45.476166 -19.758972 -2.806282 25
-45.531326 -20.098221 -2.7833047 26
-46.11351 -20.461136 -2.8298445 29
-46.305786 -20.470131 -2.8166721 30
-46.757767 -20.608109 -2.8625393 44
-46.823654 -20.717735 -2.864193 39.5
-47.385605 -21.104721 -2.8902807 45
-47.603455 -21.295197 -2.8986661 45.666668
-48.084595 -21.495476 -2.9015281 46
-48.354355 -21.803085 -2.9117146 42
-48.91713 -22.078896 -2.905813 41.333332
-49.913162 -22.605812 -2.9550788 45
-50.196655 -22.856354 -2.9469259 41
-50.654785 -23.233452 -2.9930227 46.5
-51.008286 -23.437683 -2.9899149 42
-51.241211 -23.547333 -3.0396626 50
-51.463287 -23.581779 -2.9962549 44.5
-52.025436 -23.905258 -3.0164642 44
-53.221985 -24.743523 -3.0898352 47.666668
-53.840576 -24.979904 -3.0704908 46
-54.230179 -25.410759 -3.1206567 48
-54.495544 -25.499031 -3.1489913 50
-55.505692 -26.029404 -3.1561394 48
-56.303207 -26.694839 -3.1695871 48
-57.435135 -27.195709 -3.2112708 49
-24.395325 -6.9333191 -2.0727656 11
-24.752472 -7.1813202 -2.0854008 15
-25.291077 -7.364769 -2.0923996 16.583332
-25.477249 -7.6294556 -2.093468 22.666666
-25.741776 -7.686821 -2.0989876 18.75
-26.075424 -7.7634735 -2.11536 25
-26.429764 -8.0456085 -2.1262245 38
-26.952713 -8.4232178 -2.1180391 9.958333
-27.732925 -9.0041962 -2.1554842 35
-29.020615 -9.7911987 -2.1742122 21
-29.312653 -9.928566 -2.1847403 19.666666
-29.515656 -10.015411 -2.2109449 24.25
-29.71991 -10.145714 -2.2280631 29
-30.113586 -10.284988 -2.2371008 28.25
-30.338715 -10.539497 -2.2658296 14.444444
-30.575348 -10.713615 -2.2624638 14
-30.793533 -10.772545 -2.2630231 11
-31.105194 -11.007439 -2.2838171 18.5
-31.356262 -11.211601 -2.3024015 11.066667
-31.68132 -11.249977 -2.305738 13.166667
-31.860657 -11.467216 -2.32636 18.166666
-32.195312 -11.663254 -2.3174419 18.5
-32.320602 -11.83931 -2.3534229 5.5
-32.503693 -11.979256 -2.3316281 15.75
-32.883698 -12.097206 -2.3419836 19.041666
-33.262115 -12.251297 -2.3445392 12.25
-33.435364 -12.350731 -2.3557692 21.916668
-33.541092 -12.683617 -2.3752179 13.041666
-34.103531 -12.974548 -2.3978412 21.700001
-34.480103 -13.138115 -2.4013846 20.333334
-34.707703 -13.160141 -2.4094234 20.75
-34.897491 -13.33873 -2.4228737 15.75
-35.157562 -13.595543 -2.4419549 16.416666
-35.386353 -13.635323 -2.4351604 21.25
-35.585648 -13.907448 -2.477067 18.5
-35.946854 -14.05899 -2.4619124 10
-36.162277 -14.090233 -2.4643393 17.25
-36.3591 -14.313766 -2.4841559 7.0199995
-36.632568 -14.422104 -2.4903016 16.916666
-36.839096 -14.595093 -2.504312 11
-37.093216 -14.798279 -2.5115302 13
-37.333832 -14.966805 -2.5519509 14
-37.601883 -15.035828 -2.5768163 15.5
-37.993195 -15.182739 -2.5542347 18.875
-38.447906 -15.41729 -2.572732 21.666666
-38.665833 -15.56015 -2.5894902 22.75
-38.896622 -15.887566 -2.6020122 24
-39.241714 -16.048447 -2.6152182 25.5
-40.081268 -16.444618 -2.6269295 15.583333
-40.070099 -16.741562 -2.6299286 8.5
-40.409775 -16.943489 -2.6341558 12.333333
-40.581055 -17.032478 -2.6338935 13.666667
-40.883514 -17.155495 -2.6561708 15.666667
-41.107498 -17.291122 -2.6516223 17.5
-41.570953 -17.45845 -2.6677687 21
-41.790939 -17.466705 -2.6646798 22
-42.807877 -18.289207 -2.492085 49
0.70129395 8.6434631 -1.4866385 48
0.4480896 8.5604401 -1.4916663 42.5
0.26693726 8.5567856 -1.4952078 42.166668
0.062286377 8.2943726 -1.4873796 38.666668
-0.23641968 8.1236877 -1.4918301 37.25
-0.49822998 8.0452652 -1.498796 40
-0.75119019 7.9153976 -1.4959326 42
-0.97496033 7.8360291 -1.5131776 41.333332
-1.3160248 7.4425049 -1.5307598 39
-1.4863434 7.4210739 -1.5482616 39.666668
-1.6996918 7.2720566 -1.5440755 36.5
-1.9849854 7.0252457 -1.5691094 36.5
-2.4769745 6.8347702 -1.5962236 40
-2.6557617 6.5910721 -1.5816994 31
-3.2217865 6.1906128 -1.5414097 39.857143
-3.5115356 6.0215225 -1.5400417 39.333332
-3.7498474 5.8706284 -1.5254397 39.333332
-4.0499878 5.7278442 -1.5156856 37.190479
-4.3475952 5.6019363 -1.5062809 36.916668
-4.5624237 5.4329681 -1.5071042 36.42857
-4.8533783 5.2819901 -1.4984725 37.666668
-5.022171 5.1325073 -1.501205 42.833332
-5.3647461 4.9935226 -1.4763017 45.5
-5.5487671 4.7588882 -1.4680049 40.916668
-6.1353149 4.5318527 -1.4697371 29
-6.2589874 4.3877182 -1.4533603 29
-6.5900421 4.0404892 -1.4914935 28
-8.5623169 2.932251 -1.5276778 30
-13.713806 -0.13790894 -1.5964494 26.5
-14.044586 -0.39221954 -1.6401556 24.5
-16.296417 -1.81707 -1.6984768 23
-16.61795 -1.9191132 -1.6811097 23
-16.916183 -2.0738907 -1.6539068 23
-17.116348 -2.1580582 -1.6441975 23
-18.942108 -3.5424805 -1.746794 24
-19.454361 -3.7230759 -1.7684979 19
-20.258286 -4.1827774 -1.7034564 30
-20.262741 -4.3043213 -1.6948035 30
-20.589371 -4.4019852 -1.8611774 19
-20.876526 -4.5013046 -1.8543103 19
-21.258286 -4.9591217 -1.8527989 17.5
-22.198898 -5.5357361 -1.7432921 30
-22.749695 -5.9034195 -2.0137153 24
-23.69606 -6.352478 -1.9887981 14.666667
-23.964859 -6.5633316 -2.040967 18.111111
-24.245117 -6.7295609 -1.9611208 22.75
-24.471695 -6.7666626 -2.0519836 15.166666
-24.683212 -6.9989624 -2.0682039 16.5
-24.97142 -7.1787186 -2.0252972 22
-25.127655 -7.3023224 -2.0157835 14.083333
-26.207947 -7.948204 -2.0857034 13
-26.425934 -7.9733734 -2.0849891 13
-26.994354 -8.4470139 -2.0515311 42.666664
-27.259766 -8.7175598 -1.9417486 17.25
-27.582535 -8.8524246 -2.0560734 20
-27.733643 -8.8900375 -2.0254757 26.722223
-27.953934 -9.0870972 -2.0419123 28
-28.304398 -9.2800827 -2.0453591 23.666666
-28.593658 -9.2929764 -2.0768523 25
-29.315842 -9.7633362 -2.1480341 21
-42.811234 -18.314636 -2.2292948 46.529884
-42.930496 -18.4487 -2.1457417 21
-43.652145 -18.946571 -2.2833648 24
-45.134293 -19.607559 -2.3004467 42
-4.9344635 5.1166 -1.1806483 36
-5.3964844 5.0560684 -1.2970548 50.035713
-5.5466003 4.8040466 -1.3190811 43.750519
-5.8640442 4.7131195 -1.3395262 44.457146
-6.0752716 4.6210785 -1.3816051 55.125
-7.5892181 3.453949 -1.2223339 29.75
-22.048721 -5.5213013 -1.5800788 25.25
-22.379074 -5.6118088 -1.7192824 30
-23.259659 -6.0309448 -1.4558845 47.200001
-23.554337 -6.2833786 -1.5951626 26.333334
-23.678452 -6.3857269 -1.5191841 25.5
-42.910324 -18.279976 -2.0388436 40.799999
-42.990112 -18.390671 -1.9922957 45.799999
-43.286636 -18.580246 -1.916702 30
-43.404678 -18.789024 -1.9606614 30
-43.690186 -18.961708 -2.0486856 30
-44.133331 -19.198105 -1.8676565 37.5
-45.178467 -19.62532 -2.1184566 44.5
-64.165016 -31.696625 -2.2196162 57
-5.3742523 5.0680618 -0.95099807 51.900002
-5.5756836 4.7399216 -0.98276019 48.960526
-5.8442993 4.629776 -1.021385 48.46154
-6.241333 4.5555496 -1.1192641 56
-16.389801 -1.9456711 -1.0632586 36
-44.170517 -19.238518 -1.7754476 39.666664
-64.385635 -31.811935 -2.0313075 58.5
-4.8555298 5.2570419 -0.74359369 44
-5.3731842 5.013092 -0.67204428 52.466663
-5.5449219 4.8012466 -0.61492038 49.583332
-5.8271179 4.6286087 -0.68668318 55.238094
-13.589005 -0.17004395 -0.71439338 46.5
-15.291901 -1.0379868 -0.76092863 56
-15.504883 -1.2965775 -0.75177312 56
-16.07222 -1.8475418 -0.79534006 57
-16.351974 -1.9252853 -0.96429729 40.799999
-16.509903 -1.9017029 -0.91653299 43.599998
-16.87709 -2.1422043 -0.89783573 47.5
-17.080978 -2.2324524 -0.88394165 46.264286
-17.258255 -2.3138809 -0.95397949 39.25
-64.259155 -31.685539 -1.697202 58.5
-64.414177 -31.741226 -1.7150283 59
-5.3903961 4.9339828 -0.43633747 55
-5.5808868 4.8160706 -0.39700961 54.714287
-5.7951813 4.6508026 -0.35827017 55.650002
-8.3608093 3.0586929 -0.41951799 53
-13.542343 -0.22064972 -0.62944889 46.333332
-13.688904 -0.16194916 -0.60815525 49
-15.153854 -1.0735474 -0.46870852 57
-15.288101 -1.3096008 -0.52334619 56.75
-15.450592 -1.3975067 -0.55932236 56.75
-15.800034 -1.5813599 -0.57070446 51.700001
-16.060791 -1.8394318 -0.71470451 43
-16.413956 -1.8806458 -0.47211766 50
-16.518082 -1.9747391 -0.58557057 49.738098
-16.755707 -2.119278 -0.56610584 51.75
-17.134995 -2.3008957 -0.68239832 47
-17.354248 -2.3899078 -0.52194262 54.599998
-17.575775 -2.5884781 -0.52848625 51.25
-64.231728 -31.605255 -1.4484782 59
-64.425606 -31.838829 -1.5060616 60.333332
-5.1698303 5.1849899 -0.086333752 58.666668
-5.3322906 4.9849548 -0.062897921 57.099998
-5.5638275 4.8358536 -0.15389633 58
-5.7171478 4.6002731 -0.22027659 56.25
-7.6275635 3.4192581 -0.1201241 57
-8.2241058 3.0700912 -0.239537 54
-13.96434 -0.49642181 -0.2395854 53.5
-15.309586 -1.2058334 -0.32070398 55.166668
-15.400406 -1.4222794 -0.29289198 55.5
-16.351837 -1.979248 -0.39494872 50
-16.563843 -1.9456787 -0.2467761 54.595242
-16.893127 -2.1317215 -0.28000212 53.25
-17.202194 -2.4003525 -0.43567848 56
-17.553009 -2.5681381 -0.35455084 53.599998
-13.54837 -0.023834229 0.1071701 57.625
-15.361542 -1.30896 0.051760912 59
-15.446426 -1.2540359 0.019904375 59
-15.821014 -1.5552292 0.025400877 58.599998
-16.092209 -1.7859497 0.031344175 59
-16.47113 -1.8935471 -0.093858004 59
-64.405067 -31.73053 -0.9430809 59.333332
-7.7766418 3.5507889 0.56493616 57.333332
-15.332565 -1.1410522 0.24893713 59
-15.539169 -1.4235229 0.35794687 60
-64.336113 -31.76535 -0.56363559 59
-7.675415 3.4973755 0.88765144 59.25
-13.401657 -0.09690094 0.66825247 58
-7.7624817 3.552742 0.98623133 60
-13.389008 0.028587341 0.91225362 60.333332
-13.400406 -0.058654785 1.0155418 60.333332
-7.5894318 3.4284821 1.3226252 61
-13.398102 0.055404663 1.3075633 62
-13.40802 -0.054824829 1.2412622 61.599998
-7.4215393 3.5703506 1.7455137 60.5
-13.330109 -0.040847778 1.5073438 62.666668
-7.5419617 3.4742737 2.1257036 62
-13.369873 -0.14452362 1.7869525 63
-7.6519775 3.3818893 2.295512 63
-39.758286 -16.028397 -2.6354423 5.8333335
-40.052933 -16.070862 -2.6466575 29
-40.29335 -16.225563 -2.6531105 30
-40.406586 -16.262123 -2.6442611 12
-41.312195 -17.120796 -2.7031875 41
-41.629227 -17.139847 -2.6675444 21
-41.851959 -17.242897 -2.6696129 22
-42.105255 -17.420876 -2.6809392 23.5
-42.254837 -17.730545 -2.695668 24.333334
-42.619263 -17.857407 -2.6931012 26
-43.275848 -18.201698 -2.7258055 14.75
-44.71904 -19.275093 -2.7639554 21
-44.917557 -19.343803 -2.7612982 22
-45.201126 -19.405243 -2.77935 23.5
-45.535233 -19.592125 -2.8071065 25
-46.220718 -20.173561 -2.8258815 29
-46.434814 -20.191422 -2.819206 30
-46.898514 -20.591415 -2.864449 39.5
-47.602737 -20.824677 -2.8942461 45
-47.804062 -21.141975 -2.9125872 48
-48.236786 -21.295753 -2.9032745 46
-49.943985 -22.419579 -2.9668562 47
-50.318604 -22.634377 -2.9439926 41
-50.782181 -22.982857 -2.986176 46.5
-51.186157 -23.082542 -2.9805872 42
-51.40506 -23.254189 -3.0332868 50
-51.550491 -23.352859 -2.9923539 45
-52.107925 -23.732918 -3.0111415 44
-53.353714 -24.459946 -3.0802238 47.666668
-53.984924 -24.69696 -3.0617273 46
-54.379074 -25.118507 -3.1115074 48
-54.642776 -25.201477 -3.139498 50
-55.600662 -25.856789 -3.1341734 47
-56.446442 -26.466705 -3.1643651 48
-57.573929 -26.969093 -3.2056472 49
-67.633812 -33.397171 -3.3020322 54.333332
-24.942627 -6.8869629 -2.0897911 12.5
-25.663818 -7.3442841 -2.0846436 24
-25.8965 -7.434639 -2.0976593 24.75
-26.435425 -7.7482147 -2.1144972 32.950001
-27.19487 -8.1120834 -2.1395624 44
-28.96698 -9.4772186 -2.1772919 22
-29.125259 -9.5909348 -2.2046092 21
-29.486282 -9.7187729 -2.2047179 25.166668
-29.704117 -9.7517166 -2.2156482 24.5
-29.935349 -9.9157181 -2.2314856 23.5
-30.227158 -10.170326 -2.2350531 31.5
-30.47789 -10.245506 -2.2264054 14.539999
-30.730698 -10.488037 -2.2499413 9.6333332
-30.988113 -10.628746 -2.2588692 14.861111
-31.271652 -10.716484 -2.2690549 14.355556
-31.543747 -10.850723 -2.2893143 16
-31.7556 -11.011642 -2.2878456 15
-32.03093 -11.261261 -2.3137474 26
-32.206528 -11.328003 -2.311722 18.666668
-32.523422 -11.500114 -2.3182042 9.333333
-32.84404 -11.709961 -2.32442 10.5
-33.045776 -11.815163 -2.342895 9
-33.311325 -11.965309 -2.3409524 22.653332
-33.606888 -12.166519 -2.3464136 17.833334
-33.804367 -12.376564 -2.3643305 16.604168
-34.038239 -12.455688 -2.3653772 24.583334
-34.234695 -12.728806 -2.3766971 27
-34.5513 -12.738625 -2.3794293 12.791666
-34.78157 -12.971985 -2.3941078 15
-35.056549 -13.086586 -2.399595 17.291666
-35.62706 -13.415031 -2.4240644 21.888887
-35.79863 -13.609833 -2.4365742 9.833333
-36.087219 -13.805786 -2.4390976 18.395834
-36.436325 -13.914474 -2.4517858 16.333334
-36.635132 -14.071014 -2.4616342 19.75
-36.970795 -14.155472 -2.4528625 13.75
-37.095627 -14.506378 -2.4850113 13.666667
-37.470032 -14.445435 -2.4789741 16.666666
-37.529724 -14.723083 -2.5015848 16.5
-38.119598 -14.915489 -2.5340314 20.5
-38.529831 -15.096596 -2.5418329 22.5
-38.641113 -15.242363 -2.6039262 4
-38.937622 -15.575752 -2.5980685 24
-39.244675 -15.704231 -2.6091902 25.333334
-39.394882 -15.870262 -2.609268 26
-39.958954 -16.070587 -2.6171393 7.9166665
-40.493698 -16.652771 -2.6388385 12.75
-40.7789 -16.77916 -2.648926 14.666667
-41.134354 -16.904984 -2.6528165 17.299999
-42.810181 -17.921005 -2.4808006 50.400002
-42.880569 -18.023674 -2.4351513 46.049999
-45.701263 -19.859512 -2.7317753 28
-45.885574 -19.89621 -2.7100804 29
-67.607483 -33.424637 -2.9672618 55
3.0320129 10.465889 -1.3984573 46
0.35697937 8.8489532 -1.4927483 41
0.02482605 8.7299805 -1.4944515 39.75
-0.14361572 8.5942993 -1.4954863 42.25
-0.40733337 8.4161148 -1.4977627 44
-0.64944458 8.2770157 -1.5006022 39.57143
-0.91741943 8.1885681 -1.5008557 38.5
-1.1017303 7.9173126 -1.5159221 41.25
-1.4151459 7.8744736 -1.52492 41
-1.6633759 7.6380081 -1.54249 38.666668
-1.8155365 7.5575333 -1.5630069 37
-2.1374054 7.241272 -1.5751338 40.5
-2.4058685 7.2351151 -1.5853539 37.833332
-2.5304718 6.9150085 -1.5816624 32
-2.8871613 6.9461212 -1.5971043 32
-3.3084564 6.6020126 -1.5386651 45.333332
-3.4211731 6.5029678 -1.5351775 44.833332
-3.6825256 6.2859039 -1.5298557 43.666668
-3.9384766 6.1255646 -1.5267348 43.666668
-4.2728577 5.9682541 -1.5245972 45.5
-4.5019989 5.8034134 -1.5194762 45.5
-4.7340546 5.6843338 -1.5068653 42
-4.9881897 5.5482635 -1.4912415 44.714287
-5.1935577 5.3540878 -1.4822068 43.316666
-5.5144043 5.1545563 -1.4835999 30
-5.6392059 5.1143799 -1.4631357 29
-13.934601 0.00440979 -1.6018851 27
-14.16893 0.021018982 -1.6133409 27
-16.308289 -1.4943314 -1.6433177 26
-19.112244 -3.3262024 -1.767061 23
-19.541031 -3.5618896 -1.7628784 20
-20.950867 -4.2081451 -1.8388722 20.5
-21.465378 -4.6050186 -1.8820837 19
-23.179749 -5.7642975 -1.8758936 20
-23.375214 -5.7592087 -2.0151677 17
-23.607391 -5.9410858 -1.9699419 17.5
-23.964554 -6.1287155 -2.0306427 15.5
-24.150711 -6.1615067 -2.0383215 15.5
-24.42688 -6.3877716 -1.9567916 18.5
-24.679611 -6.6371613 -1.995033 21
-24.931076 -6.7759781 -2.016185 18.555555
-25.19046 -6.9914322 -2.0580237 16.666668
-25.387848 -7.0848541 -2.0486956 17.299999
-25.763824 -7.4408798 -2.0822945 15
-26.281937 -7.6136017 -2.0892749 15
-26.698532 -8.0609665 -2.0950587 12.6
-27.036789 -8.0729675 -2.0945783 13
-27.162415 -8.1442413 -2.0262525 37.083332
-27.461517 -8.3076096 -1.9756396 22
-27.751862 -8.6486206 -2.0360897 22
-27.941696 -8.688797 -2.0855386 22
-28.247192 -8.8808899 -1.9997978 26.75
-28.442184 -8.8980484 -2.0011487 27.5
-28.802414 -9.0839615 -1.9933896 27.75
-29.422577 -9.7327652 -2.1442099 21
-29.707855 -9.9126205 -2.1233277 20
-30.035828 -9.8467636 -1.9030907 39
-30.279892 -10.092537 -1.9200873 20
-30.704346 -10.244461 -1.9129283 17
-42.805939 -17.862854 -2.2760372 48.333332
-42.871002 -18.006905 -2.1946962 43.433338
-67.736435 -33.382309 -2.8039696 56
-5.1191559 5.5525589 -1.307884 49.464287
-5.223053 5.4175873 -1.2810919 45.133823
-6.2098999 4.7350998 -1.3524117 30
-21.989822 -5.0622177 -1.4589238 30
-23.731537 -6.0674286 -1.6092343 25
-30.482559 -10.209351 -1.5811253 26
-42.948578 -18.050797 -2.0154393 44.944443
-43.063721 -18.202614 -1.967216 38.619049
-43.29248 -18.368164 -1.9079554 30
-5.1307373 5.5678253 -0.98310518 50.642857
-5.2179565 5.4342346 -0.99939561 51.193588
-5.4278412 5.2481766 -1.0063474 54.166668
-5.6453552 4.9927597 -1.0560029 56.5
-6.2081451 4.8919373 -0.9975996 57
-21.935333 -4.8703461 -1.1515288 44.5
-23.887207 -6.1193237 -1.4033628 29.5
-24.00589 -6.2497177 -1.409739 29
-79.811157 -40.799469 -2.2663412 60
-5.1423035 5.5668411 -0.67987919 52.53846
-5.2579041 5.4293289 -0.65713763 52.031887
-5.3673096 5.278656 -0.60631084 51.416668
-5.649231 4.9901276 -0.77413464 55.666664
-16.978912 -2.0262604 -0.79830432 57
-17.271286 -2.2224579 -0.94950509 44.25
-17.429245 -2.2033005 -0.9060576 47.28788
-17.651703 -2.4723587 -0.94660091 43.5
-21.95224 -4.8998718 -1.1057937 45.5
-44.541092 -18.940308 -1.494086 54
-79.899742 -40.94751 -1.9792202 61
-5.1102905 5.5577393 -0.36796045 55.059528
-5.2756958 5.4290924 -0.38635159 54.562611
-5.4395752 5.2840958 -0.41811323 52.5
-5.6687622 5.0689774 -0.31894755 57
-7.799408 3.7983398 -0.41435575 52.5
-16.945694 -1.9249191 -0.61320138 48.25
-17.204041 -2.0538177 -0.55032158 51.666668
-17.434952 -2.2459488 -0.65035677 48.275002
-17.957718 -2.348587 -0.47828865 48.75
-79.936134 -40.888794 -1.6567601 60.666668
-80.044434 -41.161499 -1.5522327 62
-5.0929565 5.5510712 -0.0645926 58.348042
-5.1772003 5.450737 -0.069832802 57.954544
-5.4693298 5.3692169 -0.1403985 59
-5.6232452 5.0533218 -0.16448689 58
-7.7201538 3.8136292 -0.077464104 54.5
-16.917892 -1.982872 -0.32867312 58
-17.229187 -2.0409622 -0.27074504 53.388889
-17.541977 -2.2013092 -0.27040458 54.900002
-17.799805 -2.4251022 -0.28933287 56.652775
-17.923294 -2.5881195 -0.2647841 56.770836
-5.0430145 5.487442 0.1329937 59.75
-5.1776123 5.4797592 0.1380372 59
-7.6615143 3.8360977 0.18045735 56
-13.592819 0.023620605 0.014127254 55.583336
-15.9991 -1.4457016 0.07365346 59
-16.116638 -1.4913559 -0.026225805 56.400002
-16.942047 -1.7859116 0.030127525 59
-17.559341 -2.1950073 -0.045475483 56.5
-17.758301 -2.3048325 -6.4134598e-05 57.833332
-17.884033 -2.5324783 -0.025778294 59
-7.861969 3.7607422 0.51129627 57.333332
-13.587921 0.03012085 0.36197543 58.5
-80.181412 -41.122528 -0.88096488 62.333332
-7.8384094 3.706459 0.79932094 58.625
-7.8612976 3.9091873 1.0967169 61.5
-7.7901764 3.8922348 1.3272934 62
-13.518188 0.077728271 1.3592801 63
-40.555542 -16.331978 -2.6487401 13
-40.847 -16.322319 -2.6530576 32
-41.034164 -16.523445 -2.658572 16.291666
-41.99472 -16.978661 -2.6740768 22.6
-42.28447 -17.078842 -2.6839278 24
-42.499893 -17.447479 -2.7083673 25
-42.684296 -17.605583 -2.69277 26
-43.339142 -17.898537 -2.7270517 15.333333
-43.546692 -18.001198 -2.7301083 30
-47.679031 -20.72065 -2.8952367 45
-50.959702 -22.640121 -2.9806216 45
-51.289398 -22.934959 -2.9817863 42
-51.594986 -23.051109 -3.0360584 50
-51.694351 -23.180923 -2.9895923 44.5
-53.399719 -24.148872 -3.0443201 45
-53.541885 -24.210976 -3.087677 49
-54.084381 -24.480339 -3.0543096 46
-54.516998 -24.832863 -3.1021175 48
-54.795029 -24.888115 -3.1297052 50
-55.70813 -25.625427 -3.142355 48
-56.59108 -26.187317 -3.1550963 48
-57.712585 -26.694374 -3.1961432 49
-25.045334 -6.6520996 -2.0917578 14
-25.822662 -7.0821381 -2.0850964 25
-26.397629 -7.3327942 -2.1013615 38
-26.829498 -7.6849442 -2.1034687 30.666666
-27.102859 -7.8083725 -2.1073213 14.5
-27.263092 -7.9171448 -2.113086 14
-28.050201 -8.3724976 -2.1307914 22
-29.762848 -9.6407471 -2.2110496 30
-30.337357 -9.8090363 -2.215771 26.222223
-30.787628 -10.217499 -2.2600722 20.375
-31.093643 -10.360008 -2.263968 16.166666
-31.394928 -10.484116 -2.2643259 10.875
-31.647079 -10.601967 -2.2774687 17.375
-32.170654 -10.908669 -2.284323 16
-32.380325 -11.068474 -2.3184125 31
-32.687149 -11.36689 -2.3050382 11.833333
-32.917618 -11.472672 -2.3146627 10.888889
-33.134064 -11.619041 -2.3280437 5.416667
-33.434891 -11.748512 -2.3478 13.952382
-33.715973 -11.886131 -2.3466623 11.791667
-33.903687 -12.040695 -2.3493738 9.333333
-34.143265 -12.214584 -2.3468559 22.666666
-34.484818 -12.415199 -2.355499 14.75
-34.719604 -12.60994 -2.3541129 14.25
-35.01973 -12.700607 -2.3278787 17.722223
-35.216614 -12.833733 -2.369559 17.976191
-35.471573 -13.024361 -2.3921268 13
-35.718002 -13.193222 -2.4038997 12
-36.000656 -13.392738 -2.4025197 15.208333
-36.296753 -13.479622 -2.421032 17.083332
-36.544052 -13.678688 -2.4236383 18.055555
-36.820221 -13.815552 -2.4307978 11.5
-37.123215 -13.870148 -2.438513 15.666667
-37.309174 -14.123207 -2.4559727 16.275
-37.893997 -14.467133 -2.4913106 20
-38.021866 -14.615959 -2.5008776 20.5
-38.326096 -14.691513 -2.5229237 13.166667
-38.614716 -14.958992 -2.5523388 13.833333
-38.870209 -15.135094 -2.55738 24.083332
-39.107147 -15.198067 -2.5744338 25
-39.253632 -15.37294 -2.5892167 15
-39.588577 -15.573372 -2.5932081 11.375
-39.87706 -15.775604 -2.5888484 8.1999998
-40.097549 -15.767418 -2.6008756 20.25
-40.319702 -15.949188 -2.609206 21.5
-40.391235 -16.237602 -2.6253948 12.25
-40.667953 -16.397278 -2.6357133 14
-40.971527 -16.407974 -2.6356754 16.333334
-41.623932 -16.766563 -2.6374984 21.166668
-42.94693 -17.551353 -2.5384676 51.5
-43.005295 -17.753685 -2.4482324 47.212502
3.7613373 11.39109 -1.3637588 47
3.2851562 11.150398 -1.396831 44
2.749054 10.714684 -1.412096 46
0.19978333 9.1792908 -1.5000305 41
-0.066055298 8.9070358 -1.4992259 44
-0.30558777 8.7826996 -1.4967918 39.75
-0.55656433 8.7748947 -1.4970703 40.285713
-0.81700134 8.5180893 -1.5030947 42.5
-1.0198975 8.355423 -1.5137391 39
-1.2937622 8.2053604 -1.5186663 41.166668
-1.5896301 8.1446762 -1.5314457 40
-1.8044281 7.7675323 -1.5475965 39.25
-2.0958862 7.7707672 -1.5608642 39
-2.3420105 7.6592636 -1.5638499 37.5
-2.6228333 7.3470459 -1.5969894 38.400002
-2.75 7.2204971 -1.5795486 35.5
-3.0650024 7.1627808 -1.591702 36.5
-3.4609528 6.9191971 -1.5201118 44.5
-3.5799713 6.6831589 -1.5265112 46.5
-3.7910919 6.582634 -1.5253696 46.5
-4.0048065 6.4449081 -1.5209565 46.5
-4.2682648 6.2905045 -1.5174186 46.5
-4.5456543 6.1177826 -1.5183089 46.666668
-4.8523254 6.0671158 -1.4996552 44.5
-5.150589 5.9276199 -1.494523 43
-5.6734924 5.6495895 -1.5265884 30
-6.0232849 5.1217575 -1.534394 30
-11.506088 1.9671402 -1.7171555 35.5
-13.634018 0.46695709 -1.6264458 28
-13.879898 0.31707764 -1.5984917 28
-16.654251 -1.4218674 -1.6689188 26
-17.207764 -1.6754761 -1.7087884 24
-19.460495 -3.0625381 -1.7224245 23.5
-20.707123 -3.8613739 -1.7778823 23.5
-21.027145 -3.8974228 -1.8397789 22
-21.127213 -4.0254745 -1.80775 24
-21.688522 -4.4943237 -1.7639728 22.75
-22.42334 -4.9422455 -1.803581 23
-23.272629 -5.3231888 -1.8773441 21.75
-23.591064 -5.5322266 -1.9638877 20.5
-23.753769 -5.6313553 -1.8682382 23
-24.15062 -5.9655151 -2.0111394 17
-24.513336 -6.2425156 -2.0000997 21.916666
-24.762955 -6.3140488 -2.0090351 19.583332
-25.021439 -6.5397797 -1.9903014 20.75
-25.318466 -6.6937332 -2.0542047 21.444445
-25.59845 -6.7998276 -2.0670245 20.625
-26.394714 -7.2681885 -2.0763547 22.5
-26.576172 -7.483223 -2.0849071 22.25
-26.905716 -7.5685501 -2.0820522 16
-27.304077 -7.9485016 -2.0059857 31.333334
-27.552429 -8.1956558 -1.9564385 19.333334
-27.806168 -8.2104263 -2.0578487 22.5
-28.080322 -8.5610962 -1.9849761 30
-28.274475 -8.5653687 -2.0188837 27.5
-28.631561 -8.6607361 -1.9631271 28.5
-28.809067 -8.79039 -2.0494456 27
-29.125946 -9.144989 -1.9940634 28.333334
-29.288986 -9.1702652 -2.0238638 29
-30.162582 -9.7327728 -1.9763639 35.125
-30.369461 -9.8715515 -2.0382543 37.5
-30.691116 -10.050972 -2.0897696 14
-30.937164 -10.170662 -2.0096745 16.285713
-34.94165 -12.516861 -2.0707786 15
-42.915039 -17.597404 -2.2891183 49.190472
-42.989487 -17.742729 -2.1955614 37.000557
-5.1532288 5.7528458 -1.1720214 45.5
-5.317276 5.5707779 -1.4145224 56
-19.145325 -2.8251877 -1.604553 28
-23.363998 -5.3341064 -1.4844887 34
-23.817123 -5.7289886 -1.4456811 30
-24.369873 -6.030426 -1.5394073 28
-29.939392 -9.5847015 -1.7799385 28.5
-30.095245 -9.7834244 -1.8033938 33.875
-30.371765 -9.7595444 -1.8430154 31.333334
-30.608124 -9.9939575 -1.732522 23.125
-31.057434 -10.216446 -1.8237171 21
-34.83017 -12.471519 -1.7912378 23.166666
-34.95903 -12.533951 -1.81986 22
-43.080246 -17.757172 -1.9949474 43.289394
-5.1829987 5.7911835 -0.96417069 51.0625
-5.399231 5.5447388 -0.85621119 56
-14.562195 0.011795044 -1.0175834 40
-23.124329 -5.2902374 -1.1830664 49.5
-23.264175 -5.2792435 -1.3067811 44.5
-23.532211 -5.5151749 -1.2080305 43.875
-44.620255 -18.632011 -1.5366588 53.25
-79.881355 -40.534195 -2.1415429 59
-79.922043 -40.719574 -2.3459644 60
-5.216156 5.8213501 -0.64885044 52.144444
-5.2627869 5.5540771 -0.6018703 52
-14.367996 0.058242798 -0.84094048 42.166668
-14.521027 -0.0039825439 -0.87291837 41.825001
-15.084412 -0.32759857 -0.83536315 43
-17.594681 -2.0243454 -0.76178861 47.166668
-21.109268 -3.9417191 -0.99624848 44
-22.898087 -5.0897522 -1.0200732 48.5
-23.328537 -5.4225769 -0.93733144 52.5
-23.458572 -5.5930481 -1.0182667 55.375
-79.918297 -40.718193 -2.0333347 61
-5.1065826 5.7463913 -0.39891219 55.375
-5.398468 5.5137405 -0.3504951 54.333332
-5.5405121 5.4133606 -0.34408736 51.5
-17.587891 -1.9282532 -0.5239222 52.805557
-23.319183 -5.3826981 -0.82936382 51
-80.020584 -40.749275 -1.6264838 61
-5.0838776 5.7403946 -0.087830067 57.53125
-17.503052 -1.885231 -0.4205687 54
-17.61763 -1.975914 -0.25605083 54.383331
-17.922104 -2.2927551 -0.18766332 55.25
-80.061913 -40.814453 -1.3328626 61
-5.0380554 5.9646301 0.30917311 60
-5.058609 5.7619324 0.14804196 59.208332
-16.869064 -1.626503 0.026390314 59
-17.648163 -1.9748688 -0.053342342 55.833332
-17.850128 -2.2667465 0.076744795 59
-5.0905762 5.9896851 0.46912813 61.5
-13.771851 0.3320694 0.48164177 61.25
-80.160423 -40.783623 -0.84687781 62
-80.158455 -40.942154 -0.86390066 62.5
-7.7258453 4.0269012 0.80067539 59
-7.7845001 3.9997635 0.89927435 60
-13.775803 0.43411255 0.61299062 60.700001
-80.235031 -40.711418 -0.47500575 62
-80.220634 -40.969643 -0.47005892 62
-7.7518158 4.0926819 0.95125866 59
-13.807571 0.4504776 1.0069084 60.333332
-80.248528 -40.90229 -0.064391375 63
-7.7012329 4.162941 1.4273167 60.833332
-13.861298 0.47092438 1.3153203 62
-80.295502 -40.830818 -0.0065772533 63
-7.6977539 4.1225891 1.6925292 62.5
-7.7522888 4.163002 1.8787267 63
-42.545639 -17.11042 -2.7025161 25
-42.76326 -17.215691 -2.7011406 15.25
-43.083344 -17.460335 -2.7178581 6.5
-43.306778 -17.46669 -2.7140579 8.666666
-43.427551 -17.638931 -2.7396994 29
-43.681656 -17.695496 -2.7423983 30
-51.926773 -22.953178 -2.9836166 43
-53.600464 -23.855049 -3.043412 45
-53.764801 -23.944885 -3.1059697 51
-54.142593 -24.36293 -3.0507994 46
-54.629028 -24.625656 -3.0965486 48
-54.898666 -24.71212 -3.1258326 50
-55.871429 -25.270638 -3.1383224 48.5
-56.720459 -25.911865 -3.145324 48
-57.853165 -26.431526 -3.1882925 49
-26.348557 -7.054512 -2.1013701 41
-26.80072 -7.268425 -2.0919964 36
-26.937531 -7.3514633 -2.1076562 29.166668
-27.170044 -7.4722214 -2.1048923 30
-30.698624 -9.8201447 -2.2276649 23
-31.050995 -9.9615936 -2.2560897 23.333334
-31.300842 -10.026802 -2.2544415 16
-31.504562 -10.197739 -2.2523735 17.583334
-31.754501 -10.323631 -2.2672143 17.444445
-32.384827 -10.727776 -2.2837386 22
-32.594803 -10.905846 -2.2921145 21.666666
-32.816696 -11.018806 -2.2894747 15.75
-33.048126 -11.270088 -2.3105636 13.875
-33.372574 -11.282616 -2.3239081 18.666666
-33.596359 -11.541771 -2.324204 12.5
-33.840546 -11.579002 -2.3299351 11.5
-34.085892 -11.830009 -2.3410096 17.293333
-34.327927 -12.042229 -2.3452191 16.020834
-34.565689 -12.124481 -2.3412879 12.858334
-34.80806 -12.326035 -2.348516 23
-35.158737 -12.518509 -2.3170531 27.933334
-35.295166 -12.640671 -2.3490982 21
-35.941132 -12.948349 -2.3088236 19.305555
-36.180283 -13.037018 -2.3239942 12.916667
-36.416397 -13.215088 -2.386564 16.490742
-36.67601 -13.371788 -2.3880608 13.82
-36.941605 -13.557022 -2.4116499 13.833334
-37.208237 -13.630684 -2.4119523 14.166666
-37.825134 -13.967613 -2.448086 6.6666665
-37.883102 -14.207077 -2.464354 12.75
-38.217712 -14.38723 -2.4633522 22
-38.456512 -14.429092 -2.4768023 23.25
-38.776733 -14.59597 -2.4968185 14.666667
-39.007111 -14.744637 -2.5108168 15.625
-39.186295 -14.928993 -2.5403488 5.6666665
-39.483551 -15.223808 -2.5418711 7
-39.624771 -15.301956 -2.5501845 18.25
-39.998627 -15.451103 -2.5683157 20.166668
-40.238892 -15.619164 -2.5802836 21.583334
-40.605469 -15.676697 -2.5823162 15
-40.768982 -15.92115 -2.6079838 20.944445
-40.917068 -16.135582 -2.6228628 24.5
-41.185211 -16.361656 -2.6216624 18
-41.615356 -16.44796 -2.6011949 21.5
-41.823273 -16.644409 -2.6119986 22.5
-42.130264 -16.694427 -2.6215067 24
-42.406326 -16.801331 -2.6479778 25
-43.096375 -17.384705 -2.463146 50.5
-43.138 -17.567833 -2.4484608 40.541668
3.5667267 11.572212 -1.3740253 47
3.0005341 11.345741 -1.407599 44
2.4232483 10.984177 -1.4276142 46
0.52610779 9.702919 -1.4823844 44
0.24154663 9.6100616 -1.483453 43
0.004776001 9.4411774 -1.4895434 38.333332
-0.14328003 9.2937546 -1.5015996 41
-0.43029785 9.0417633 -1.5022147 44
-0.74324036 8.9053955 -1.5045364 37.75
-0.89755249 8.7215195 -1.5070093 41.799999
-1.2394714 8.6597061 -1.5105438 42.5
-1.5056305 8.4374084 -1.5285585 41
-1.8005371 8.3079758 -1.5476103 42.25
-2.0405273 8.1813507 -1.5338063 37
-2.3456726 7.9928207 -1.5812767 39.333332
-2.5233765 7.728302 -1.5658913 38.5
-2.7378845 7.6424255 -1.5737453 37.666668
-3.0341644 7.4601212 -1.5839405 36
-3.322464 7.3314514 -1.5940087 35
-3.474823 7.0526733 -1.5221879 43
-3.7658997 7.0581131 -1.5243466 43.666668
-4.0241699 6.8664932 -1.5195897 43.5
-4.2935791 6.670845 -1.5119433 43.5
-4.5495605 6.522377 -1.5102031 43.5
-4.7881927 6.3723907 -1.5078003 43.5
-5.1276398 6.263382 -1.5029974 44
-5.2996826 6.2055817 -1.4101243 48.5
-11.587997 2.167717 -1.7136047 35.767857
-14.013519 0.73474884 -1.6341758 29
-14.183762 0.44403076 -1.6372659 28
-20.129852 -3.2082291 -1.765753 24
-20.322327 -3.2998199 -1.7811537 24
-23.252365 -5.0440292 -1.9361222 22
-23.421722 -5.3272171 -1.8693168 22
-23.536118 -5.2725143 -1.9318073 21.166668
-23.953156 -5.4335632 -1.9769435 22.333334
-24.394394 -5.7232285 -1.9920797 22.333334
-24.700851 -5.8634644 -1.9998355 23
-24.935211 -6.0969391 -2.0109844 20.450001
-25.200867 -6.3089371 -2.0249643 19.222221
-25.432846 -6.4774704 -2.0462666 22.5
-25.572693 -6.5870514 -2.0450168 18
-26.281464 -6.8775787 -2.0528584 20
-26.368713 -7.0333557 -2.0764284 32.666668
-27.193466 -7.6526871 -2.0810654 16
-27.363022 -7.7484131 -2.0709994 16
-27.868103 -7.8896484 -2.0924635 17
-27.956512 -7.9684219 -2.0829687 30
-28.254974 -8.2107849 -2.0689478 24.666666
-28.665878 -8.3017502 -1.9110582 31
-28.700027 -8.402359 -1.9829454 28.75
-28.92395 -8.5994415 -1.9030128 30
-30.627625 -9.7946854 -1.8628786 26
-30.974838 -10.033493 -2.1631572 13.25
-31.330841 -10.065147 -2.1477516 15
-34.821793 -12.413246 -2.1631081 13.5
-35.101471 -12.491821 -2.0431514 28.083334
-35.339279 -12.559792 -2.073154 34.875
-35.926971 -12.848839 -2.1253159 14
-36.227478 -13.034523 -2.1561029 22.166666
-36.431854 -13.136475 -2.0967145 20.659227
-36.676056 -13.258034 -1.9956014 20.318182
-43.09877 -17.359291 -2.2575765 44.241669
-43.197739 -17.464493 -2.1579387 40.973545
-5.2725983 6.0799942 -1.161521 49.25
-10.77095 2.7206039 -1.3444262 40.666668
-11.251144 2.4725037 -1.2257524 44
-20.364685 -3.4031525 -1.4055693 42.099998
-23.369293 -5.2743073 -1.5131948 29.875
-24.30542 -5.6699142 -1.5199854 29.4
-29.822495 -9.1845474 -1.7672369 30
-30.003311 -9.1698074 -1.7909636 29.5
-30.155334 -9.4571228 -1.8181167 28
-30.481644 -9.5918579 -1.6559997 28.166666
-30.752319 -9.9053802 -1.858155 20.666666
-31.432693 -10.037971 -1.7312672 26
-31.537567 -10.218452 -1.7551579 25
-34.921677 -12.4683 -1.7156694 25
-35.145493 -12.491585 -1.7795992 45.941666
-35.317795 -12.65493 -1.7932689 33.320515
-35.5504 -12.731461 -1.8218083 30.5
-35.933258 -12.844971 -1.8729258 23.861109
-36.16922 -13.023453 -1.8958564 22
-36.401993 -13.160187 -1.9066863 30
-43.240738 -17.519226 -1.9728024 48.48148
-5.2653198 6.0907288 -0.91269612 50
-10.507568 2.7968216 -1.0850852 46
-10.663696 2.7717438 -1.0660968 44.375
-11.012375 2.5926361 -1.0084994 46.5
-11.212219 2.5205536 -1.0566754 45.299999
-18.713593 -2.1744461 -1.2346506 37
-18.736481 -2.1967621 -1.2221682 37.25
-20.391495 -3.4582291 -1.2701552 44
-21.298279 -3.8604507 -1.2004652 44.9375
-21.67923 -4.0734406 -1.2258179 43.625
-23.148987 -5.1599808 -1.2205529 51.5
-23.310959 -5.2652893 -1.2766702 43.5
-23.665222 -5.3660736 -1.2356145 43.770832
-35.13031 -12.469307 -1.4658487 52.428574
-35.353226 -12.60569 -1.5328145 39.5625
-35.746674 -12.711678 -1.6157143 32.333332
-44.676102 -18.4422 -1.52336 53.333332
-5.2622681 6.0477753 -0.76908875 51.5
-10.471603 2.8274231 -0.75574374 48.5
-10.655746 2.7434311 -0.73812342 47.708332
-10.932297 2.6234589 -0.71564722 48.75
-11.204163 2.5152435 -0.74791455 47.766666
-11.453705 2.3879242 -0.77288008 46.5
-21.143585 -3.9174423 -0.96787 44.5
-21.314163 -3.8785477 -0.9499135 46.900002
-21.551239 -4.1667175 -0.93809628 54.5
-23.360489 -5.2223511 -0.91952491 52.479168
-23.526382 -5.323494 -1.0504282 43.875
-35.174026 -12.438744 -1.2998075 54.599998
-35.67218 -12.653938 -1.2985511 41.583332
-5.2169037 6.2381516 -0.21393824 56
-10.455231 2.8550568 -0.4283669 51
-10.649994 2.7450485 -0.38296533 51.5
-10.923981 2.6524734 -0.47447228 49.916668
-11.305252 2.4774017 -0.49130607 50.666668
-11.382751 2.4319077 -0.5132153 49.714287
-17.883438 -1.9190674 -0.4459703 51
-21.488922 -4.1632614 -0.78922391 56
-23.331696 -5.2873764 -0.77936363 53.333332
-5.1882782 6.1770248 -0.042800903 57.625
-5.1678772 6.0798264 -0.082422733 57.25
-10.662231 2.725296 -0.2002728 53.5
-10.985977 2.6343155 -0.29939914 52
-11.276443 2.5095139 -0.20062113 53
-11.921066 2.104126 -0.11710882 55.25
-14.146805 0.52425385 -0.32492876 52.833332
-17.669006 -1.7803192 -0.26290274 55
-17.952545 -1.8016968 -0.37828279 53
-5.1941681 6.1988068 0.19758725 59.625
-5.206955 6.1583481 0.1205802 59.5
-10.939926 2.5854721 0.11775804 56.5
-11.169998 2.5340958 0.19631338 57.659996
-17.818832 -1.8615494 0.014543295 56
-17.889938 -1.8672485 0.14574671 57.5
-5.1837616 6.1688919 0.55487227 62
-10.931122 2.5805054 0.45463967 60.299999
-11.310165 2.3397064 0.46504974 60
-17.861618 -1.7878799 0.23136568 58
-17.933578 -1.9539413 0.30676222 59
-10.957733 2.574585 0.71615458 62.333332
-11.275848 2.4082031 0.69253659 62.333332
-11.405518 2.3424606 0.71705222 62.5
-80.337646 -40.586098 -0.055655122 63
-80.428047 -40.608223 -0.0038251877 63
-7.7151184 4.4009018 1.585676 62
-13.854843 0.54148865 1.4518628 63
-11.450043 2.2213593 2.059761 61
-11.644333 2.1211395 2.0559464 61
-12.293274 1.8347244 2.0431802 61
-10.696457 2.5246582 2.4056594 62
-11.395691 2.2177353 2.391408 62
-11.69606 2.0872498 2.384999 62
-11.896332 2.0019989 2.3810577 62
-12.296951 1.8294907 2.3736744 62
-10.696762 2.5564499 2.8527265 63
-10.993134 2.4173431 2.8464031 63
-11.400543 2.2602539 2.8388808 63
-42.393066 -16.496902 -2.6561577 4
-42.616913 -16.817467 -2.6710355 4.5833335
-43.826691 -17.491142 -2.6922011 31
-53.895447 -23.814758 -3.1074841 51
-54.787445 -24.41774 -3.0960691 48
-55.109985 -24.498283 -3.1285198 50
-56.006866 -25.066101 -3.1272969 48
-56.893326 -25.579338 -3.1354816 48
-57.989746 -26.155258 -3.1789896 49
-26.017776 -6.398468 -2.0848098 39
-26.730194 -6.8776932 -2.0893719 29
-26.835693 -7.0534897 -2.0921879 32.666668
-27.071762 -7.1164932 -2.0939326 30
-28.127579 -7.7585068 -2.1162081 21
-29.366562 -8.5729294 -2.1422737 28
-30.001083 -8.9118881 -2.1435091 30
-30.519058 -9.2289352 -2.1796844 22
-30.555313 -9.355896 -2.1944146 21
-31.159058 -9.7261963 -2.2355328 16.777779
-31.435272 -9.7659073 -2.2426307 23
-31.677277 -9.8842316 -2.2176595 16.733334
-31.899353 -10.044968 -2.2363913 26
-32.218079 -10.292091 -2.2588356 22.416666
-32.476318 -10.377296 -2.2747333 26.666666
-32.731506 -10.580055 -2.2834108 14.5
-32.856033 -10.717842 -2.2919888 13.5
-33.208008 -10.920624 -2.3055286 19.458334
-33.403625 -11.097633 -2.300997 14.166667
-33.67865 -11.160072 -2.3198454 19.6
-33.988708 -11.298637 -2.3348925 19.566666
-34.226456 -11.539055 -2.3409083 20.916668
-34.454361 -11.725273 -2.3451645 13.583334
-34.728592 -11.865112 -2.3515854 16.25
-34.932968 -11.947556 -2.3642104 16.833332
-35.288849 -12.209305 -2.3345101 32.083332
-36.767578 -13.258743 -2.3339651 9.6111107
-36.999573 -13.350388 -2.3340161 16.958334
-37.272537 -13.495903 -2.3260524 9.4380951
-37.607376 -13.625854 -2.3943496 17.25
-37.834946 -13.723297 -2.3412619 13.794444
-38.084518 -13.879257 -2.3959017 11.035714
-38.334122 -14.07312 -2.4538388 14.416667
-38.57782 -14.202843 -2.4789762 13.5
-38.856689 -14.346634 -2.4986148 14.166667
-39.387085 -14.579811 -2.491286 28
-39.506577 -14.949463 -2.5229077 18.375
-39.893784 -15.033752 -2.5295126 20.791666
-40.100372 -15.193199 -2.5452104 29
-40.410553 -15.291893 -2.5471165 14.8
-40.678299 -15.439201 -2.564924 24
-40.746323 -15.622124 -2.5894771 32
-41.070724 -15.930847 -2.5848963 18
-41.444962 -16.003494 -2.581655 21
-41.651245 -16.172646 -2.5801363 22
-41.981659 -16.301613 -2.5888882 23.666666
-42.215881 -16.447456 -2.6103251 24.5
-42.525742 -16.5681 -2.6362286 5.3333335
-42.765472 -16.676262 -2.6353104 7
-42.928223 -16.949173 -2.6451581 14.466667
-43.253082 -17.148689 -2.5350006 33.349998
-43.407227 -17.289558 -2.5777669 30.333334
-43.830246 -17.363174 -2.6339519 31.75
4.6699982 12.753891 -1.3203819 45
4.5395203 12.389336 -1.3301296 48
4.2776184 12.539009 -1.3368747 48
3.3521576 11.825882 -1.3902965 47
2.7796936 11.507996 -1.42314 44
2.1486969 11.205078 -1.4407871 46
0.55453491 10.196457 -1.4886043 44
0.1499939 9.7398834 -1.4938195 45
-0.076828003 9.6052704 -1.4921288 42.333332
-0.37886047 9.4966125 -1.4915111 39.400002
-0.62034607 9.4094315 -1.4994709 42
-0.82632446 9.1481552 -1.509908 42.666668
-1.0563507 9.0038223 -1.5251498 38.666668
-1.4188385 8.7601547 -1.525692 42
-1.6158295 8.7190933 -1.5346313 40.285713
-1.8917694 8.5579834 -1.542381 38.599998
-2.1101074 8.3834763 -1.5652864 40.200001
-2.4194794 8.1867981 -1.5532746 37
-2.6493073 8.1445847 -1.5954304 40
-2.985321 7.7184296 -1.5776534 36
-4.0187073 7.3768997 -1.5318437 44
-4.2684784 7.199501 -1.5250638 44
-4.4582672 7.0587311 -1.5195203 44
-4.7638397 6.8873444 -1.519001 44
-5.007431 6.7106857 -1.5142522 44
-5.2740479 6.4959793 -1.4784601 43.375
-5.3601379 6.4403763 -1.5096381 42
-11.763992 2.2952576 -1.6930027 36.041664
-12.101166 2.2115784 -1.6941838 35.75
-13.911072 1.0410919 -1.6274159 30
-14.17569 1.0453949 -1.6374993 30
-20.309982 -2.9305267 -1.794225 25
-20.496429 -3.0511322 -1.8024776 25
-20.998413 -3.3233948 -1.7776773 26
-21.4198 -3.7455292 -1.8586094 25
-22.415161 -4.3197937 -1.8080039 26
-23.984543 -5.1483612 -1.9691887 23.5
-24.640533 -5.4878616 -1.9843295 22.416666
-24.927734 -5.6355438 -2.0058358 24.5
-25.07486 -5.82061 -2.0201719 25
-25.309235 -6.0295486 -2.019417 23.333334
-25.426346 -6.2239532 -2.0389214 19
-25.763107 -6.3805313 -2.0349991 20.25
-26.134323 -6.4916992 -2.0523796 28
-26.328705 -6.6468124 -2.0547247 28.166666
-26.659485 -6.795105 -2.0581527 28.25
-26.824585 -6.9329529 -2.052042 20.083332
-27.107407 -7.1150131 -2.0666018 19.5
-27.380142 -7.2888336 -2.0763714 19
-27.571518 -7.3471603 -2.0799751 19
-27.777588 -7.6010437 -2.0741384 20.833332
-28.554688 -8.0290222 -1.9782646 28
-28.823364 -8.2479706 -1.9757316 30
-29.528397 -8.6451874 -2.1010094 29
-30.557617 -9.417366 -1.8768656 27
-30.958755 -9.5359344 -1.9920933 29.875
-31.649323 -9.9378128 -1.9153986 22.4
-35.314957 -12.276154 -2.055588 38.976189
-35.489258 -12.238182 -2.1988657 29
-36.443481 -13.088425 -2.0300283 24
-36.751785 -13.248962 -2.0599525 18.986668
-36.991852 -13.359612 -2.0675557 27.489584
-37.239777 -13.451942 -2.0738034 19.944445
-37.597595 -13.627014 -2.1805983 15.611905
-37.889587 -13.736511 -2.1575584 17.663889
-38.416306 -13.9888 -2.0035734 33
-43.263901 -17.131783 -2.2810683 48.388889
-43.343613 -17.209579 -2.1772723 47.777775
-5.3394012 6.3849411 -1.3052709 45
-11.562286 2.3962326 -1.2741518 41
-11.784241 2.3025131 -1.424324 38.916668
-12.124908 2.2088623 -1.5191727 37.5
-12.391342 2.0163651 -1.4020324 36
-28.683075 -8.1116943 -1.6818681 43.416668
-30.01265 -9.0069504 -1.7867088 30
-30.863037 -9.589325 -1.8005714 27.5
-31.411392 -9.8400497 -1.8322089 23.857143
-35.246384 -12.301849 -1.7573011 48.785713
-35.454346 -12.334129 -1.8101492 25
-36.044189 -12.788895 -1.8139706 30.6875
-36.279099 -12.936615 -1.8173928 25.479166
-36.527267 -13.037514 -1.7905977 28.307407
-36.745087 -13.169792 -1.8400307 27.351852
-37.071579 -13.329994 -1.8616421 28.385416
-37.320023 -13.407845 -1.7951126 31.954546
-37.582993 -13.504448 -1.8293104 35.700001
-37.749847 -13.763588 -1.9480631 21
-38.07782 -13.860382 -1.9044039 21.785713
-38.450989 -13.994446 -1.8988431 39
-38.690323 -14.143555 -1.7758515 26.200001
-43.450607 -17.27829 -1.9710188 45.670368
-43.504547 -17.447632 -1.9023998 42.5
-5.356369 6.3905258 -0.97130227 48
-11.644379 2.3695068 -1.1018522 42.666668
-11.845337 2.2652969 -1.1300879 42.333332
-12.299698 2.0166245 -1.0334208 41.5
-21.453339 -3.6079559 -1.1814175 45.625
-28.627426 -8.1726608 -1.5021288 45
-35.28653 -12.265129 -1.4923246 49.066666
-36.086914 -12.775665 -1.4855132 33.183334
-36.251633 -12.890663 -1.4931557 38.366669
-36.539673 -13.016319 -1.511642 37.25
-36.842072 -13.14756 -1.4894054 38.709091
-37.200195 -13.266235 -1.5247459 34.75
-37.313736 -13.363991 -1.527807 41.79847
-37.601486 -13.483261 -1.5853016 42.02
-38.431137 -14.001541 -1.5603859 48
-44.821533 -18.174896 -1.5429668 53
-5.4116058 6.4281921 -0.75011873 50
-11.576492 2.3405533 -0.79207945 46.25
-11.863419 2.2153244 -0.78707719 46.125
-12.122833 2.1057358 -0.81973481 45.75
-12.291733 1.9945831 -0.79642892 45.244446
-12.650009 1.8225784 -0.74803185 45.833332
-12.781082 1.8305435 -0.82911134 45
-35.288712 -12.251007 -1.2667768 50
-36.888504 -13.155251 -1.3419058 39
-37.066711 -13.143051 -1.0701056 44.333332
-37.447723 -13.464668 -1.3641047 49
-37.575638 -13.456139 -1.337651 48
-44.826111 -18.202309 -1.495482 53.666668
-11.585876 2.3441925 -0.53421164 49.400002
-11.861832 2.2313004 -0.47648811 49.92857
-12.018173 2.1491241 -0.56044626 49
-12.307907 1.9706879 -0.49810433 50
-12.649353 1.8325424 -0.51930308 49.611111
-18.159561 -1.5328979 -0.464535 52.083336
-5.2644806 6.3766251 -0.078701496 57.5625
-11.574783 2.3754654 -0.29046702 52
-11.810883 2.2399979 -0.2210896 53
-12.112442 2.0376282 -0.15890121 54.833332
-12.283218 1.9653091 -0.13997388 55.25
-12.506927 1.8542175 -0.17159963 55
-18.057739 -1.4886322 -0.25784993 53.733337
-18.089539 -1.5590668 -0.32565784 53.5
-5.2774506 6.4683914 0.20276403 60.111111
-11.273788 2.5650558 0.24331808 58.5
-11.914581 2.2262955 0.038464785 58
-11.994339 2.1985931 0.17077136 58.583332
-18.002991 -1.492218 -0.042503119 55.916668
-5.2663422 6.542778 0.49812245 61.5
-12.081406 2.1879654 0.33556795 60
