# .PCD v0.7 - Point Cloud Data file format
VERSION 0.7
FIELDS x y z intensity
SIZE 4 4 4 4
TYPE F F F F
COUNT 1 1 1 1
WIDTH 1212
HEIGHT 1
VIEWPOINT 0 0 0 1 0 0 0
POINTS 1212
DATA ascii
-20.202408 -27.779541 0.21154737 60
-20.312897 -27.844299 0.20621347 60.863636
10.80394 -15.683418 1.5864339 61
10.036713 -16.069138 1.5535126 60.851852
9.9300079 -16.19001 1.5894852 61
-20.338974 -27.793816 0.51067114 62.357143
10.8423 -15.753464 1.8897576 61
10.02536 -16.0783 1.9118762 61
-20.391556 -27.725403 0.71618128 62.5
10.879562 -15.810059 2.2682633 62
10.00798 -15.987427 2.1809998 63
9.8661499 -16.210167 2.7812185 63
-39.320175 -34.87402 -3.6089091 45
-40.685043 -35.416454 -3.6960912 43
-41.110825 -35.449135 -3.7177758 43
-49.155029 -38.711254 -4.2450027 45
-49.582886 -38.669273 -4.261631 45
-52.644867 -39.871922 -4.2116404 53.25
-18.656082 -26.666695 -2.6786098 30
-20.259766 -27.379852 -2.7525516 43.400002
-20.243027 -27.562653 -2.6327429 45.75
-39.215607 -34.78664 -3.3936453 51
-39.364075 -34.775333 -3.4845634 47.466663
-52.674652 -39.913193 -3.8664603 54.977776
6.9495392 -16.979019 -1.4045291 52
5.8568878 -17.282753 -1.3764839 40
5.5439301 -17.516777 -1.3912816 17.916668
5.2479858 -17.540604 -1.4149451 26.5
5.0055237 -17.691483 -1.4247303 21.07143
4.7545319 -17.761673 -1.4453707 25.347223
4.4544525 -17.901001 -1.4570127 24.104168
4.1439056 -17.950897 -1.5020647 29.583332
3.8923492 -18.140938 -1.5608478 23.530001
3.6408386 -18.214546 -1.6300573 36.439999
3.3312988 -18.295547 -1.6485744 31.866665
3.0409851 -18.460625 -1.6406584 24.039999
2.7858734 -18.590424 -1.6427751 34
2.4785156 -18.700142 -1.6552095 33.5
2.178833 -18.757866 -1.6571207 34.714287
1.8561859 -18.80854 -1.6745849 38.400002
1.7225189 -18.945465 -1.6737804 34
1.4974976 -19.158287 -1.6743917 28.333334
1.1526031 -19.234703 -1.6782441 29
0.85154724 -19.273712 -1.6855392 29.3125
0.59066772 -19.428474 -1.7020202 22.361109
0.36325073 -19.471039 -1.7093215 26.041666
0.048400879 -19.621185 -1.7261286 22.833332
-0.2227478 -19.711014 -1.740191 19.333334
-0.54872131 -19.842194 -1.7546477 22.083336
-0.78311157 -19.904251 -1.7647457 27.9
-1.1732788 -19.994873 -1.7909384 18.916666
-1.4231873 -20.174622 -1.8123856 15.416667
-1.6951294 -20.230865 -1.8417211 19.708332
-1.9966583 -20.378624 -1.8691869 14.375
-2.2552338 -20.510269 -1.8925462 15.166665
-2.5312195 -20.60498 -1.9245839 10.185184
-2.8410339 -20.690308 -1.9404411 12.011905
-3.0822296 -20.82431 -1.9585762 7.4740262
-3.344986 -20.921753 -1.9581904 12.111394
-3.6270142 -21.021454 -1.9606934 15.587879
-3.8990479 -21.115051 -1.9549737 17.824074
-4.1669769 -21.205757 -1.9611998 17.066666
-4.5129547 -21.368782 -1.9544539 21.916666
-4.7700958 -21.484192 -1.9514203 24.513891
-4.9941864 -21.576317 -1.9460645 26.270832
-5.2710419 -21.687454 -1.9342499 22.892857
-5.5514374 -21.771324 -1.9388609 23.979166
-5.8794098 -21.897964 -1.952158 25.416666
-6.1354675 -22.006508 -1.961164 25.928572
-6.4356384 -22.033051 -1.9230323 27.270834
-7.2931061 -22.280632 -1.8573179 26
-8.5788727 -22.805687 -1.9259501 30
-11.786819 -24.304024 -2.0958896 29.5
-20.261063 -27.40921 -2.4333682 44.700001
-20.308014 -27.476059 -2.4230752 48.833332
-39.328369 -34.800533 -3.1386108 51.083332
-52.659119 -39.947517 -3.633491 56.700001
9.7794495 -15.909843 -0.94689322 55
6.3618774 -17.22242 -1.1310172 30
6.1009979 -17.247498 -1.2217889 38
5.8708649 -17.364861 -1.1907272 37.793774
5.6510315 -17.443039 -1.2003837 29.944445
5.4000854 -17.634712 -1.351727 27.333334
5.0861664 -17.683662 -1.3796473 25.5
4.776474 -17.748207 -1.4027081 23.666666
-5.8649597 -22.030403 -1.6032996 31.5
-6.4764404 -22.108711 -1.7512298 30.59259
-6.7280121 -22.35025 -1.8153653 30
-7.3738556 -22.40239 -1.7528987 29
-20.269928 -27.422844 -2.1873541 46.714287
-20.310577 -27.497604 -2.1292973 49.316666
-39.309784 -34.702389 -2.8628039 53
-39.384308 -34.8372 -2.8425369 53.333332
-52.702637 -39.922234 -3.3534231 58.458336
9.7480774 -15.903549 -0.791471 56
8.1642914 -16.595047 -0.77389145 45
5.8418427 -17.42067 -0.9016633 44.250004
5.6197357 -17.491676 -0.93541908 28.333334
-5.8597565 -21.999657 -1.3219342 36.23148
-6.2516785 -22.180908 -1.3406248 37.599998
-6.4139404 -22.0541 -1.3565249 37.108334
-20.301895 -27.416443 -1.8500681 51.125
-20.328201 -27.513084 -1.8346443 50.345455
-39.345856 -34.875381 -2.5955815 55.444443
-52.708023 -39.96217 -3.0565696 60
9.934021 -15.680344 -0.48048306 53
9.7272644 -15.946472 -0.47417068 57
8.4605255 -16.463341 -0.51299524 49.125
8.1912384 -16.535248 -0.67176867 46.625
7.1896362 -16.757965 -0.50569725 42.5
5.8234253 -17.394676 -0.65798378 42.927086
5.613739 -17.49678 -0.65313292 37.625
-5.864563 -22.000183 -1.0420241 41.282051
-6.2460785 -22.189919 -1.1054749 41.666664
-6.3900909 -22.129112 -1.0704274 41.923813
-8.1888275 -22.761078 -1.0888443 52.944443
-20.285248 -27.454987 -1.5656476 52.183334
-20.332245 -27.519012 -1.5922737 51.990742
-39.377838 -34.827248 -2.2785902 57.533337
-52.706894 -40.049534 -2.7600594 61.516666
-52.810577 -39.917252 -2.6641068 62.083336
9.9648743 -15.792885 -0.07907629 54.375
9.7522583 -15.976585 -0.22915173 58.5
8.4999847 -16.448181 -0.33465195 52
7.2132263 -16.700294 -0.3012085 47
-5.8539886 -21.976181 -0.88955593 43
-6.5232086 -21.999184 -0.90093994 45
-7.1216278 -22.460297 -0.74094343 49
-7.2076874 -22.553337 -0.80919933 47.875
-8.1837769 -22.766701 -0.82131052 54.285713
-8.3536987 -22.729889 -0.91370296 56
-20.314545 -27.433578 -1.2934904 54.009521
-20.338928 -27.492401 -1.2925615 54.942219
-39.429138 -34.947037 -2.0798221 59.333332
-52.737579 -40.00544 -2.5143037 63
9.9602051 -15.774422 0.14683342 55.277782
9.7893829 -15.902481 0.15563202 56.303925
8.524353 -16.423424 0.18796492 59.666668
8.4525604 -16.394157 0.012370586 57.166668
-7.3025208 -22.557663 -0.4648304 53.833332
-8.1943207 -22.72345 -0.63244104 56.666668
-20.320908 -27.436691 -0.98598385 57.166668
-20.362823 -27.498337 -0.95519876 55.696972
-39.386307 -34.891769 -1.7146535 61.900002
10.55249 -15.672264 0.56503344 57.25
9.9139709 -15.782127 0.45153904 56.597225
9.8261261 -15.894417 0.43256807 57.722225
-6.6082916 -22.352745 -0.19024181 59
-20.351013 -27.419899 -0.65964794 57.875
-20.372177 -27.491631 -0.68551922 57.599998
-39.378021 -34.81826 -1.4748387 62.5
-52.814621 -40.004101 -1.7538705 55
10.62059 -15.537086 0.6869874 58.333332
9.9466858 -15.775421 0.72607946 58.916672
9.8441772 -15.864754 0.6895566 58.759262
-20.36618 -27.406082 -0.46909857 58.625
-20.377853 -27.522461 -0.35913897 58.768513
-52.75589 -39.914822 -1.4671559 56
10.329605 -15.511337 1.0321898 61
9.9259186 -15.816444 1.0703373 60.666668
9.8355713 -15.859055 1.0900908 61.142857
-20.306412 -27.445869 0.037191868 59.833332
-20.381302 -27.514236 -0.11710024 59.181477
9.9285278 -15.826996 1.3790555 60.849998
9.858429 -15.943054 1.3665624 61.277775
-20.325226 -27.468605 0.26620626 60.75
-20.382095 -27.544518 0.21445417 61
-52.740723 -40.032314 -1.0728889 57
10.754837 -15.40271 1.5936718 61
9.9644775 -15.788155 1.5928855 60.987183
9.8653717 -15.95845 1.6488256 59
-20.40834 -27.405182 0.58612394 62.888889
-20.391434 -27.562317 0.52622986 62.5
10.828003 -15.522278 1.8796997 61
9.9834747 -15.823898 1.9612484 60.666668
-20.43457 -27.486046 0.73535585 62.75
10.828018 -15.543411 2.1717005 62
9.9451904 -15.828041 2.1819115 63
9.8635406 -15.856255 2.7968211 63
-50.258942 -38.607471 -4.2920132 45
-52.729355 -39.657135 -4.421433 47
-52.875717 -39.665985 -4.425241 49.6875
-40.77475 -35.038063 -3.6842113 43
-40.87323 -35.029667 -3.6898155 43
-41.616287 -35.416332 -3.7334895 43
-41.827988 -35.395321 -3.7393742 43
-49.900955 -38.635452 -4.2744594 45
-50.207352 -38.783161 -4.2751551 47
-50.508224 -38.704632 -4.2913094 47
-52.741562 -39.677826 -4.2327209 51.222221
-52.879166 -39.765041 -4.2166367 50.833332
-3.2044525 -20.519066 -1.9943647 23.25
-3.5857544 -20.531288 -2.0102654 43
-18.22081 -26.388924 -2.6680632 29
-18.658813 -26.489273 -2.6903791 29
-18.784348 -26.616158 -2.6891484 29
-20.286499 -27.18914 -2.7288222 39.200001
-20.635269 -27.190552 -2.7428718 40.5
-20.707642 -27.18943 -2.8104601 44
-39.360092 -34.517872 -3.4525204 48.222225
-39.405792 -34.581532 -3.5613332 47.166668
-52.742615 -39.692024 -4.0113878 51.983334
6.9478302 -16.759285 -1.398097 52
5.927475 -16.917465 -1.3647828 42
5.709259 -17.006294 -1.3996081 30
5.4795227 -17.201469 -1.4047871 26.378571
5.1970673 -17.25206 -1.4066391 20.583334
4.8771362 -17.435371 -1.4351349 21.642857
4.6378326 -17.506989 -1.4440122 23.219696
4.363678 -17.586784 -1.4686384 25.166666
4.0372467 -17.740211 -1.495297 21.738096
3.8061523 -17.805824 -1.5618682 21.875
3.5296478 -17.954216 -1.6440468 27.333334
3.2142944 -17.998688 -1.6446729 29.575001
2.9709167 -18.158081 -1.650352 32.380951
2.638855 -18.25766 -1.6625271 31.375002
2.3863525 -18.330414 -1.6643038 37.099998
2.1169128 -18.463638 -1.6640282 31.416666
1.8590088 -18.622116 -1.6652651 37
1.5064545 -18.765167 -1.6696787 37
1.1906128 -18.772987 -1.680665 37.5
0.98097229 -18.875633 -1.6911983 35.619045
0.64137268 -18.951866 -1.7009935 28.5
0.4655304 -19.195076 -1.7095423 31.5
0.12246704 -19.202782 -1.7215815 23.75
-0.14395142 -19.321648 -1.7404022 25.777779
-0.40606689 -19.423584 -1.7461848 22.657408
-0.60624695 -19.604134 -1.7544112 21.033335
-0.93389893 -19.646271 -1.771594 18.976191
-1.230545 -19.739464 -1.7910004 16.809523
-1.5317535 -19.914032 -1.8254962 19.703703
-1.7366791 -20.002853 -1.8506708 23.666666
-2.0209656 -20.085831 -1.8735538 19.125
-2.3797455 -20.195671 -1.9015536 17.166666
-2.6091919 -20.318062 -1.916801 17.933332
-2.8804321 -20.397499 -1.9467006 13.027083
-3.2195282 -20.524292 -1.970593 13.419697
-3.4885712 -20.637383 -1.977675 14.536667
-3.7313232 -20.789764 -1.9739814 13.606061
-4.0278778 -20.846405 -1.9797544 20.581818
-4.3226776 -20.961487 -1.9732399 20.487181
-4.5638885 -21.101776 -1.9687867 24.083334
-4.8275299 -21.169823 -1.9628882 18.018518
-5.1458282 -21.299881 -1.9657817 21.523808
-5.4626312 -21.45237 -1.9648495 23.125
-5.7151184 -21.508804 -1.9613299 22.5
-5.983078 -21.581497 -1.9756784 24.816666
-6.2516327 -21.767815 -1.9802361 25.666668
-6.5658112 -21.837074 -1.9904532 25.863636
-6.7472076 -21.887039 -1.933794 28
-7.3417664 -22.110916 -1.8842025 25
-8.3574677 -22.49852 -1.9307952 25
-8.7570343 -22.614761 -1.9319077 29
-9.60466 -23.168747 -2.0017471 28
-10.541779 -23.460182 -2.0252638 26.5
-11.146896 -23.449478 -2.0898952 30
-11.352921 -23.582878 -2.0600595 27
-13.591278 -24.604507 -2.1751213 29.5
-20.332642 -27.174599 -2.4410133 41.033333
-20.568939 -27.185928 -2.4268584 42.261902
-20.739304 -27.22081 -2.5464602 44.333336
-21.13739 -27.32843 -2.4457941 42.125
-21.372177 -27.405396 -2.4296827 43
-39.395554 -34.494877 -3.1609502 50.666668
-39.397324 -34.582394 -3.2766395 49
-52.719055 -39.659718 -3.6815472 55.625
6.7233887 -16.679924 -1.1301489 30
6.2783966 -16.76561 -1.216795 28.833332
5.9768677 -16.964432 -1.2271881 30.541666
5.7740326 -17.074387 -1.219543 38.86842
5.5798645 -17.17205 -1.2350478 25.333334
5.2977142 -17.379417 -1.3626995 28
5.0002899 -17.421623 -1.3826318 27
-6.8044128 -21.853699 -1.728106 31.142857
-20.335052 -27.196297 -2.1164289 45.378788
-20.491089 -27.201736 -2.155549 45.819443
-20.826141 -27.2519 -2.1684842 44.829998
-21.105453 -27.309082 -2.1874003 43.416664
-39.430847 -34.41032 -2.8020453 53.416668
-39.430161 -34.618168 -2.8739471 53.25
-52.744034 -39.684242 -3.3515258 58.375
7.2281494 -16.50721 -0.74222612 41.674999
5.9500275 -16.957573 -0.79543781 50
5.7595367 -17.053665 -0.87146997 40.883331
-6.6350708 -21.87455 -1.3489947 37.693333
-6.7690735 -21.785995 -1.3820195 37.625
-8.1537476 -22.489891 -1.3341608 53
-8.7160187 -22.620583 -1.3475075 53
-20.354416 -27.160347 -1.8391738 50.736111
-20.522369 -27.233902 -1.8411365 50.07
-20.828262 -27.230423 -1.8770065 48.666668
-21.041748 -27.281883 -1.8932176 50
-39.336136 -34.612373 -2.6342788 55.333332
-39.444229 -34.565746 -2.4936833 55.900002
-52.763046 -39.680508 -3.0688505 60.200001
7.1309204 -16.515724 -0.61721611 42.933334
5.9101257 -17.08754 -0.70031881 49.5
5.7444458 -17.062172 -0.67451 42.966667
5.5830383 -17.185677 -0.64574432 36.666668
-6.6244507 -21.95356 -1.0916977 42.163635
-6.7294006 -21.868454 -1.0163193 43.25
-7.7281799 -22.293159 -1.1429706 56
-8.1937256 -22.459534 -1.1454368 54.25
-8.5644684 -22.593254 -1.1339746 55.25
-8.7198944 -22.67704 -1.150476 55.166664
-20.366547 -27.186157 -1.5286031 53.833336
-20.545944 -27.210648 -1.5361233 53.545002
-20.830429 -27.219322 -1.570816 52.785713
-21.104248 -27.34687 -1.7004213 52
-39.384308 -34.601307 -2.296804 57
-39.442932 -34.574989 -2.1845393 58.474998
-52.85936 -39.642223 -2.8556781 61
-52.986847 -39.674274 -2.6409593 62
9.9763641 -15.494431 -0.12593317 55
7.5675812 -16.292091 -0.26867437 52
7.3769684 -16.381538 -0.27248812 52.75
7.2465515 -16.501747 -0.36121273 51.333332
-7.8019257 -22.245018 -0.85142183 57
-8.1144409 -22.467667 -0.69319916 49
-8.1744232 -22.615608 -0.76042509 55
-8.5652466 -22.59481 -0.81388235 56.666668
-20.370636 -27.170799 -1.2354636 56.97826
-20.529755 -27.189987 -1.2803807 56.573528
-20.886627 -27.262772 -1.288825 56.152775
-21.184128 -27.347076 -1.2675371 58.404766
-39.491913 -34.525749 -1.8199553 62
-52.933426 -39.698727 -2.5145493 63
9.9425507 -15.578377 0.20546436 55.400002
9.5896149 -15.614143 0.10378075 54.825001
-8.0860443 -22.470871 -0.52166128 51.5
-8.2584991 -22.65873 -0.62771606 57.333332
-20.379745 -27.223503 -1.0044317 57.650002
-20.534698 -27.22596 -0.99251747 58.561401
-20.833725 -27.270264 -0.97481203 59.916668
-21.147736 -27.34597 -1.0282469 58.583332
-39.45015 -34.499115 -1.680109 61.666668
-39.473434 -34.537449 -1.6767259 62.555557
10.388626 -15.250923 0.52709723 57.466663
10.250366 -15.325287 0.5829401 56.75
9.8967896 -15.522041 0.47698832 57.131248
9.5960541 -15.657928 0.36750078 58
-20.402756 -27.189613 -0.6519084 60.666668
-20.496811 -27.254631 -0.66666174 57.736111
-20.902634 -27.296906 -0.69271803 58.099998
-21.163971 -27.369957 -0.73147202 61.125
-21.670944 -27.562897 -0.65518379 61
-39.454285 -34.422188 -1.4670959 62.5
-52.877319 -39.692547 -1.7663765 55
10.366516 -15.285004 0.73326349 59.700001
10.300537 -15.341957 0.82503796 59.291668
9.9338531 -15.482277 0.7395153 58.736843
9.7861633 -15.659401 0.7067585 58
-7.7550507 -22.358879 0.063472271 59.875
-20.413071 -27.230881 -0.41141939 61
-20.548187 -27.276871 -0.38281822 59.518513
-20.79303 -27.273285 -0.44788122 60
-21.150803 -27.376991 -0.43244934 60.444443
-21.754501 -27.575279 -0.31846571 61.666664
-52.805862 -39.64772 -1.4780335 56
10.317886 -15.230743 1.0810437 62.222225
10.297424 -15.389709 1.1250792 61.375
9.8833923 -15.559853 1.0825982 60.727776
-7.6551819 -22.373192 0.26892185 62.5
-20.433472 -27.197266 -0.17141056 60.666668
-20.498459 -27.325172 -0.077683449 59.400002
-20.877808 -27.279312 -0.14840508 60
-21.347931 -27.431374 -0.13362217 62
-21.803055 -27.614563 -0.13367701 62.25
-52.805145 -39.676613 -1.086844 57
9.9694824 -15.321548 1.3597651 60
9.873764 -15.532654 1.355638 61.533333
-20.402756 -27.283928 0.21615219 60.92857
-20.505737 -27.296043 0.19947004 61.200001
10.720474 -15.206635 1.5978708 61
9.9972534 -15.382225 1.5713177 60
9.9072571 -15.53598 1.5889535 61.777782
-20.4366 -27.311066 0.53106833 62.690472
-20.461151 -27.316216 0.48906612 62.1875
10.783066 -15.235252 1.8511076 61
9.9234314 -15.6147 1.7960782 62
-20.476334 -27.252655 0.7549758 63
10.817139 -15.234573 2.1827645 62
9.9427032 -15.60273 2.1898398 63
-50.525635 -38.581417 -4.3045936 45
-50.883301 -38.570522 -4.3070145 47
-52.938599 -39.413544 -4.4120936 53
-41.154297 -34.99543 -3.7054143 43
-41.497635 -34.934841 -3.7221966 43
-50.064102 -38.272842 -4.2714791 46
-52.937149 -39.382069 -4.2726493 55
-52.938217 -39.509102 -4.3079219 52.666664
-3.069046 -20.289864 -1.9800863 3.8
-3.2726135 -20.323311 -1.9978938 27.888891
-3.5970154 -20.35186 -2.0089221 16.333334
-3.8136139 -20.398659 -2.0109076 25
-3.9944153 -20.524284 -2.011157 30
-18.388947 -26.12059 -2.6596832 28
-18.927383 -26.337303 -2.679184 28
-20.691833 -27.088623 -2.8743563 42
-39.381378 -34.185493 -3.4266419 50.150002
-52.864853 -39.324135 -3.9923329 55.5
-52.945557 -39.496471 -4.0374522 53
5.6508484 -16.791931 -1.3925352 26.5
5.3252563 -16.892616 -1.3961067 30.630951
5.0338745 -17.003448 -1.4329834 29.888887
4.8589172 -17.11969 -1.434072 23.878571
4.5644379 -17.210556 -1.4484353 23.527779
4.2426605 -17.340233 -1.4857445 20.93125
4.0056763 -17.46331 -1.5007324 21.797621
3.7311096 -17.553864 -1.5825558 28.588888
3.4149323 -17.727516 -1.6552138 44.200001
3.1514282 -17.726433 -1.6494136 30.266668
2.8145447 -17.867363 -1.6548815 30
2.5757141 -17.969833 -1.6577187 25.333332
2.2735138 -18.096733 -1.6663074 29.533331
2.0461273 -18.153984 -1.678719 30.75
1.7454987 -18.293488 -1.6828017 40.166668
1.4242401 -18.47821 -1.6780915 31.5
1.1807404 -18.530701 -1.6827912 33.5
0.8807373 -18.679749 -1.6894221 36.214287
0.58990479 -18.739349 -1.7049108 27.174999
0.28997803 -18.877579 -1.7106433 21
0.063980103 -18.901146 -1.7286696 22.928572
-0.26107788 -19.056999 -1.7379889 20.641668
-0.48243713 -19.163513 -1.7514839 19.433332
-0.78710938 -19.293091 -1.7640295 22.1
-1.0902557 -19.335258 -1.7840619 15.25
-1.3456573 -19.473991 -1.7990627 19.733334
-1.6043701 -19.602448 -1.8250499 16.9
-1.9449921 -19.675575 -1.8519444 19.833334
-2.1791534 -19.806816 -1.8795276 17.566666
-2.4346924 -19.922783 -1.902226 14.151516
-2.75914 -20.054245 -1.931613 14.722222
-3.0211029 -20.166779 -1.9523492 15.039999
-3.2470093 -20.235802 -1.9703321 18.266666
-3.5877991 -20.404762 -1.9868021 10.021667
-3.8982239 -20.518303 -1.9915352 10.009523
-4.1371613 -20.569481 -1.9881616 15.152779
-4.4575348 -20.673553 -1.9802508 15.25
-4.6787109 -20.797386 -1.9833307 18.364582
-4.9971924 -20.907356 -1.9887209 19
-5.2518158 -21.01046 -1.9902415 19.916668
-5.5282135 -21.124802 -1.9877939 20.80303
-5.7546539 -21.241859 -1.9863153 23.625
-6.0952454 -21.318382 -2.000041 25.666666
-6.3782043 -21.505188 -1.9901586 25.083334
-6.6199799 -21.541389 -2.0138683 25.375
-6.9567566 -21.644173 -1.9863596 28.384615
-7.4390106 -21.82325 -1.890326 23.5
-8.4981995 -22.23632 -1.9453697 23.5
-9.5769043 -22.693382 -1.9909668 26.5
-9.9282074 -22.766998 -2.0712228 26
-10.348022 -23.135773 -2.0462976 25
-10.544266 -23.177017 -2.0653811 25.25
-11.082275 -23.194946 -2.0925322 29
-11.344513 -23.305222 -2.0959463 25.5
-14.398956 -24.666222 -2.2040081 29
-16.190689 -25.158936 -2.2853789 30
-16.45195 -25.26738 -2.3021684 30
-16.684113 -25.37014 -2.3213129 30
-16.882385 -25.468315 -2.3420858 30
-21.148926 -27.292488 -2.4372563 43.5
-21.459015 -27.376579 -2.5606265 41
-21.786224 -27.406708 -2.5350037 45.075001
-39.434799 -34.214001 -3.1449375 50.638885
-52.782913 -39.32309 -3.6325016 56.690472
6.1770172 -16.617584 -1.1191278 28.666666
5.871933 -16.698555 -1.227787 35.666668
5.6183319 -16.773804 -1.2495427 23.669643
5.4024353 -17.036072 -1.3677573 22.25
-6.8994598 -21.675392 -1.576385 33.666668
-20.760193 -27.14727 -2.2439914 41.666668
-21.158432 -27.294312 -2.1527133 46.666668
-21.440842 -27.374084 -2.1333661 46.257141
-21.803116 -27.403931 -2.2261448 47.5
-21.968826 -27.41877 -2.1967859 49.5
-39.411377 -34.206871 -2.8817201 53.466667
-39.507767 -34.28952 -2.9459987 52.400002
-52.81868 -39.348289 -3.3619242 58.400002
8.6929626 -15.680946 -0.74329805 47
8.5043335 -15.652847 -0.78047323 46.555557
6.9889679 -16.363037 -0.76858711 42
6.0645905 -16.569626 -1.0373659 29
5.813446 -16.693565 -0.85820341 41.271427
5.6405029 -16.775673 -0.89226389 37.777779
-6.9320068 -21.641228 -1.351191 37.228695
-20.843246 -27.176544 -1.8959708 49.166668
-21.190063 -27.295677 -1.8640018 49.854164
-21.446274 -27.380234 -1.8683596 50
-21.771454 -27.413086 -1.9674392 49.142857
-22.004105 -27.495056 -1.9256678 51.5
-22.4841 -27.606232 -1.914875 51.5
-22.971954 -27.707619 -1.8243814 53
-23.254303 -27.916885 -1.8877363 52.19643
-23.46138 -27.950607 -1.9318905 49
-39.428497 -34.269566 -2.5846219 55.39167
-52.834595 -39.350094 -3.0125504 60
9.641449 -15.132751 -0.32993364 52.5
7.5266571 -16.180855 -0.50788498 50.833332
7.0204468 -16.433235 -0.68290043 43
5.8096008 -16.716125 -0.68800211 42.087502
5.6263275 -16.838097 -0.64901638 41.728832
-6.9880371 -21.649086 -1.0826101 42.264706
-7.509613 -21.955742 -0.97948122 45.083332
-20.768127 -27.073799 -1.4346561 55.5
-20.837021 -27.108971 -1.4976001 53.916668
-21.178253 -27.303925 -1.5731554 53.700001
-21.472076 -27.351662 -1.5640388 53.933331
-21.782684 -27.425568 -1.6211214 53.895
-22.064102 -27.511856 -1.5859046 54.525925
-22.456436 -27.592667 -1.5994406 54.57143
-22.629776 -27.643982 -1.5730348 55.066669
-22.888092 -27.686699 -1.5803776 54.976192
-23.25528 -27.898804 -1.6350255 55.158974
-23.471481 -27.934593 -1.6293683 54.777782
-23.859482 -28.047348 -1.5930839 56
-23.960999 -28.082993 -1.5442138 57
-39.48941 -34.270241 -2.2085605 57.840004
-39.510925 -34.371372 -2.2318549 58.333332
-52.906754 -39.417831 -2.8314652 61
9.6269989 -15.134247 -0.094777107 55.5
9.6413879 -15.32325 -0.071534157 55.75
7.4989166 -16.123535 -0.25391245 52.75
7.312851 -16.135078 -0.27957678 47.083332
-7.5411224 -21.854248 -0.7734952 48.520832
-7.7185516 -21.855171 -0.85944319 48.400002
-9.0016785 -22.439598 -0.88480377 57
-20.645767 -27.063484 -1.1834149 56.166664
-20.85112 -27.146637 -1.288115 56.364586
-21.234467 -27.306557 -1.2430768 58.299999
-21.474426 -27.379372 -1.3172441 57.866661
-21.822571 -27.477493 -1.3194227 57.852043
-22.107468 -27.531403 -1.3413725 57.124245
-22.394257 -27.592148 -1.3335209 58.012817
-22.651276 -27.647659 -1.3398852 58.111111
-22.922211 -27.712097 -1.3328519 57.822914
-23.265457 -27.876465 -1.3466625 57.332054
-23.541504 -27.986069 -1.3951869 58.807693
-23.772919 -28.045593 -1.3804545 59.666668
-39.462463 -34.174553 -1.8473792 60
-39.636353 -34.283176 -1.9304452 60
9.8669739 -15.340828 0.24243593 56
9.6018982 -15.253464 0.15964222 57.400002
-7.5855103 -21.975876 -0.56677437 52.722225
-7.7704926 -22.057167 -0.59411478 58
-8.7068024 -22.299828 -0.54373789 57.5
-8.8894501 -22.418175 -0.61976671 58
-20.770493 -27.098907 -0.88408184 59
-20.849686 -27.181862 -0.98646832 58.8125
-21.535995 -27.357735 -0.97076702 57.916668
-21.766479 -27.447273 -1.0271721 58.833332
-22.111847 -27.524178 -1.0067172 59.166668
-22.391708 -27.596954 -1.0813856 58.777775
-22.724075 -27.65519 -1.0518198 58.722225
-22.991928 -27.744186 -0.93542099 59.5
-23.31102 -27.91124 -1.0893021 58.75238
-23.501831 -28.00766 -1.0890622 60.875
-23.647583 -28.04731 -1.206358 60.666668
-24.091705 -28.195747 -1.1848798 59.5
-39.490341 -34.25655 -1.6371722 61.5
-39.564423 -34.281971 -1.7103662 62
10.546188 -15.046089 0.48351383 57
10.367661 -15.006798 0.49386978 56.666668
10.159058 -15.0811 0.44071913 56.5
9.8879242 -15.259506 0.47420263 57
9.5704803 -15.230873 0.30184746 59.5
-7.8274841 -21.900009 -0.27584171 57.25
-8.7554321 -22.285629 -0.20749569 59
-20.68338 -27.079643 -0.71595812 59
-20.859711 -27.120476 -0.66905117 60.333336
-21.517242 -27.439262 -0.69682217 61.25
-21.759018 -27.49826 -0.8098321 60.5
-22.190353 -27.535873 -0.73100519 61
-22.349777 -27.597488 -0.75739002 61.125
-22.723236 -27.643791 -0.68161631 61.875
-22.849075 -27.720612 -0.81192255 60.25
-23.24765 -27.887039 -0.81536436 60.275002
-23.532227 -27.954414 -0.84112215 59
-24.190887 -28.223061 -0.8146677 62.125
10.448929 -14.813339 0.72696829 58.5
10.361465 -15.003586 0.77963257 59.397434
10.125275 -15.167252 0.70080853 58
-8.2151489 -22.057632 0.0032067299 58.75
-8.7694855 -22.396851 0.076244354 61
-20.493469 -27.043266 -0.47715378 61
-20.771179 -27.084221 -0.36134291 59
-20.873734 -27.088943 -0.3863802 60.333332
-21.451614 -27.398026 -0.43167591 61
-21.699677 -27.507187 -0.38179827 60.666668
-22.803146 -27.650261 -0.56172037 63
-22.84906 -27.684044 -0.5458498 61
-23.277634 -27.88884 -0.47145319 61
-24.240799 -28.239342 -0.60502768 63
-52.852814 -39.380573 -1.4888678 56
10.296402 -15.001396 1.1166368 61.5
10.060501 -15.198601 1.0423045 60
9.7987671 -15.294136 1.1045842 59
-20.888306 -27.087257 -0.13575268 61.75
-21.147247 -27.327965 -0.21857309 62
-21.461441 -27.403831 -0.18936729 62.5
-21.69838 -27.505424 -0.21290731 62.5
-23.299911 -27.927025 -0.2006321 62.125
-23.420715 -27.924187 -0.02738142 62
10.326218 -15.076561 1.3064399 63
9.9474945 -15.042252 1.3686852 60
9.8610077 -15.192184 1.4174705 62.25
10.696991 -14.864143 1.6090832 61
9.9216461 -15.130356 1.605401 62.666664
9.8871155 -15.309486 1.5578561 63
9.9089966 -15.334511 1.8051925 62
9.9280701 -15.040329 2.2104192 63
9.9221344 -15.295937 2.2002635 63
-49.178543 -37.544815 -4.2410154 45
-50.270401 -38.203979 -4.2803426 46
-50.655823 -38.099514 -4.3009992 46
-51.192764 -38.439827 -4.3182359 47
-52.944061 -39.217266 -4.4392209 53.666668
-39.635406 -33.894905 -3.6995606 47
-40.671707 -34.396305 -3.7000403 41
-40.82933 -34.398323 -3.7086415 41
-41.199631 -34.520779 -3.7305207 40
-41.478836 -34.555733 -3.7478476 40
-41.790573 -34.876125 -3.7367969 43
-41.983429 -34.810429 -3.7418494 43
-52.909317 -39.006882 -4.248395 51.333332
-53.000916 -39.26741 -4.1937737 54.333332
-3.4255219 -20.01107 -1.9904938 13.75
-3.6698151 -20.130951 -2.0001478 12.7
-3.9931183 -20.184044 -2.0094032 11.637501
-4.2189941 -20.188774 -2.0145283 11
-4.7297516 -20.327019 -2.0410886 19
-18.201782 -25.6082 -2.679039 25
-18.571991 -25.923584 -2.6668148 26
-18.743835 -25.864265 -2.6930842 25.5
-21.692917 -27.129135 -2.8459783 43.5
-22.962891 -27.496567 -2.822793 29
-23.952667 -27.874763 -2.7293291 35
-24.383316 -27.985901 -2.8579316 35.349998
-24.733276 -28.076584 -2.8483839 37.333332
-24.876694 -28.143707 -2.9081316 31.5
-39.495087 -33.922848 -3.4150443 47.583336
-43.167557 -35.354046 -3.6566653 49
-52.897903 -39.011513 -3.9226789 53.5
5.9268646 -16.222893 -1.348928 24.5
5.7597351 -16.418404 -1.3859644 32.833332
5.6104279 -16.492828 -1.4062634 28.5
5.2784424 -16.62648 -1.4121728 22.700001
4.9967651 -16.749023 -1.4385023 30.34375
4.6567078 -16.856735 -1.4485965 23.520832
4.4227753 -16.958878 -1.4677391 22.378786
4.1388245 -16.996628 -1.5123811 24.875
3.8462982 -17.183891 -1.5461602 25.078333
3.5075836 -17.400513 -1.6552854 41
3.256073 -17.322281 -1.6635547 28.200001
2.9818726 -17.534538 -1.6488543 25.5
2.664566 -17.608009 -1.670228 33.299999
2.3870239 -17.693909 -1.6670918 32.299999
2.2526855 -17.839722 -1.6693645 33.333332
1.9159546 -17.919205 -1.6642456 19.833334
1.6202393 -18.055115 -1.6782656 20.5
1.3419342 -18.188126 -1.6919303 33.5
1.0927887 -18.206665 -1.7027555 41.5
0.80784607 -18.340889 -1.7005558 26.642857
0.50942993 -18.505501 -1.7087603 33.166668
0.22537231 -18.602905 -1.7236166 28.666668
-0.041122437 -18.670303 -1.7348366 39
-0.30380249 -18.758156 -1.7400422 25
-0.62075806 -18.908981 -1.7500067 18.416668
-0.90464783 -18.970436 -1.7766757 11.972221
-1.2009735 -19.090622 -1.7877975 15.041667
-1.4896088 -19.211052 -1.8123956 17.833334
-1.7468414 -19.350166 -1.8389583 18
-2.0135651 -19.437164 -1.8694263 19.666666
-2.294693 -19.543968 -1.8886418 15.571428
-2.616333 -19.634697 -1.9114051 16.483334
-2.8189087 -19.781715 -1.9249425 16.333334
-3.0733185 -19.861839 -1.9511614 17.569445
-3.3180542 -20.007698 -1.9704285 8.5666666
-3.6459351 -20.086647 -1.9861031 14.777778
-3.9427338 -20.208138 -1.9955101 11.833334
-4.3209381 -20.310379 -2.0031667 13.833333
-4.5343933 -20.408455 -2.0053234 13.360001
-4.8275299 -20.523193 -2.0077395 15.95
-5.0971832 -20.653915 -2.0054708 17.75625
-5.4294128 -20.786537 -2.0104456 21.027779
-5.6581116 -20.851624 -2.0141668 23.722223
-5.9496002 -20.918884 -2.0278811 24.333332
-6.2146301 -21.034477 -2.0160899 24.309525
-6.4568176 -21.144852 -2.0267015 26.222221
-6.7429352 -21.301781 -2.0301304 26.133331
-7.0784454 -21.374077 -2.04073 26.375
-7.2103577 -21.484764 -2.0055351 29.174999
-7.6456757 -21.580383 -1.8731537 26
-9.5624695 -22.320175 -2.0240331 24.5
-9.8930359 -22.457603 -2.0602412 25
-10.139526 -22.44635 -2.0518484 27.25
-10.384003 -22.660088 -2.0488191 26.666666
-10.617523 -22.867973 -2.0687208 23.5
-11.356064 -22.993164 -2.1075864 24
-11.609711 -22.986816 -2.117764 27
-11.802032 -23.235489 -2.112772 25.5
-12.257065 -23.334991 -2.1420498 26
-12.731995 -23.634422 -2.1737161 25
-14.60054 -24.348824 -2.1885033 28
-14.784225 -24.458748 -2.2353225 29.666666
-15.093628 -24.540848 -2.243423 29.333334
-16.26683 -25.019875 -2.2979383 29
-16.51503 -25.116013 -2.3122401 29
-16.741653 -25.241684 -2.3371663 29
-16.939789 -25.328194 -2.3556395 29
-21.675507 -27.014465 -2.4573221 45.805557
-21.75766 -27.060883 -2.6125474 44
-23.116043 -27.720383 -2.5138779 36.125
-24.097687 -27.940887 -2.5640163 40.433334
-24.403824 -27.988655 -2.5862799 40.444443
-24.829407 -28.122253 -2.5472574 48.5
-25.867661 -28.601814 -2.6607966 37.5
-26.107254 -28.61657 -2.7161913 37.285713
-26.350235 -28.698639 -2.730134 37.5
-39.507355 -33.887432 -3.1544023 50.23
-52.843079 -39.059521 -3.5698924 56.25
6.2839661 -16.2836 -1.1218486 30
6.0504761 -16.326286 -1.1246133 28.611113
5.793457 -16.360512 -1.2444777 37.279762
5.6507111 -16.469009 -1.0823512 37.357143
-7.0984192 -21.47644 -1.6372938 33.595238
-7.2440491 -21.397156 -1.6792955 31.1875
-21.687714 -26.998062 -2.2122707 47.5
-22.848373 -27.388626 -2.2232628 50.5
-23.576965 -27.829132 -2.239532 42.5
-23.808655 -27.87426 -2.2585354 42.375
-24.031784 -27.944626 -2.2737422 46.75
-24.404892 -28.002068 -2.246325 45.457577
-24.803986 -28.155861 -2.3837371 50
-24.914566 -28.1325 -2.3843536 47
-39.520004 -33.926811 -2.8299069 53.07143
-52.876205 -39.080143 -3.3569822 58.5
9.6568146 -14.993347 -0.67189169 49
5.9862518 -16.35096 -0.80013514 50
5.8205566 -16.415459 -0.88521051 44.036362
5.6321716 -16.425598 -0.96812773 38.266666
-7.1325684 -21.454338 -1.3976855 37.694447
-7.2275391 -21.419586 -1.2480912 41
-21.711075 -26.888298 -2.0277233 49
-22.994934 -27.577744 -1.9536428 51.25
-23.245712 -27.702972 -1.9176989 49.132652
-23.569626 -27.892883 -2.0695877 47
-23.932404 -28.03447 -2.0827522 47
-24.182129 -28.01899 -1.9419484 50.959999
-24.388275 -28.026657 -2.0060511 50.828125
-24.864929 -28.106918 -2.086246 47
-24.881058 -28.140259 -2.0841575 52
-39.469925 -33.958103 -2.5527482 55.533333
-52.815628 -38.926205 -3.0008287 61
-52.891174 -39.010132 -2.971405 60.5
9.6257324 -14.993668 -0.31988525 53.5
9.6142731 -15.111435 -0.36509132 52
7.1490936 -15.79689 -0.45889235 50
6.8926697 -16.141541 -0.53337765 42.666668
6.6930847 -16.033859 -0.42047596 45.5
5.9554749 -16.379799 -0.5714612 51
5.8289642 -16.489662 -0.70469475 44.916664
5.5627594 -16.52784 -0.67392826 37.830769
-7.1015472 -21.533447 -1.1158962 42.224998
-7.3031921 -21.403198 -1.0810242 43.0625
-22.585892 -27.506638 -1.5859776 54.75
-22.934723 -27.669601 -1.6815553 53.900002
-23.270996 -27.715889 -1.6102386 55.298294
-23.419342 -27.789177 -1.6113648 55
-24.192123 -27.986023 -1.6757722 55.033333
-24.365143 -28.019867 -1.6641684 55.49242
-24.711258 -28.082489 -1.6700025 55.214283
-24.937897 -28.162781 -1.8322802 54.25
-25.163422 -28.224289 -1.822587 54.5
-39.560837 -33.962807 -2.1843791 58.209187
-52.937973 -39.007664 -2.7085109 61.666664
9.6204681 -14.972977 -0.15290213 55.125
9.5910645 -15.105751 -0.24462748 53
7.1549683 -15.783714 -0.31784678 51
6.6841125 -16.010292 -0.32539511 47
-7.5852661 -21.744446 -0.73061752 48.833332
-7.7968292 -21.714935 -0.79348755 50
-23.010406 -27.694473 -1.3815236 57.92593
-23.29805 -27.767464 -1.3510089 57.385715
-23.908051 -28.041168 -1.4166784 59.444443
-24.14975 -28.04557 -1.3835769 59.152782
-24.385284 -28.012077 -1.3703442 57.964287
-24.628357 -28.039589 -1.4121151 58.796295
-24.94632 -28.174576 -1.4836836 56.666668
-25.17572 -28.233124 -1.5544839 56
-39.435669 -33.977722 -1.8940449 59
-39.682404 -34.054794 -1.9244757 60
-52.968491 -39.080441 -2.4957852 62.75
9.6203308 -14.92955 0.1420579 57
9.5698395 -15.097244 0.16698122 56.375
-7.6436615 -21.750572 -0.52915573 51.25
-7.9118805 -21.57933 -0.404562 56
-8.5723114 -22.036995 -0.38528442 58
-8.9881287 -22.007294 -0.39109516 60.5
-22.651062 -27.525238 -1.0667906 57.5
-23.070663 -27.738976 -0.99287128 59.666668
-23.299957 -27.768692 -1.0755973 58.625
-24.239105 -28.052803 -1.1384683 60.020832
-24.382141 -28.041374 -1.0798206 59.561401
-24.682327 -28.10363 -1.1092501 59.5
-25.37738 -28.429733 -1.0736432 60.583332
-25.476273 -28.39399 -1.2024498 58.25
-26.195297 -28.634201 -1.2632289 60
-27.722687 -29.432281 -1.1930056 60.928574
-39.512741 -33.916912 -1.6683507 61.462959
10.432495 -14.663506 0.53683758 57.75
10.201508 -14.713486 0.52845478 57.638885
10.046066 -14.788307 0.46227503 56.651188
-8.5752106 -22.058968 -0.33021355 59.25
-8.8573761 -22.072212 -0.17650032 59
-8.9750214 -22.097038 -0.18706608 60.75
-23.241104 -27.776009 -0.77984047 61
-24.237488 -28.172531 -0.83208942 61.75
-24.398773 -28.032318 -0.79476213 61.75
-24.592972 -28.132805 -0.73806906 61
-25.364716 -28.346512 -0.88255596 60.5
-25.499268 -28.401596 -0.85076809 60.321426
-39.481323 -33.943333 -1.3502555 62.5
-52.931732 -39.247845 -1.7835469 55
10.486099 -14.628632 0.76500463 58.833332
10.173492 -14.733406 0.76857424 60.416668
10.009888 -14.79731 0.73911619 59.583332
-8.902832 -22.012604 0.13455296 61.5
-22.990463 -27.718056 -0.32940674 62.5
-23.376038 -27.838226 -0.31304312 62
-24.311325 -27.991943 -0.53723192 62
-24.3797 -28.010674 -0.53837872 62.5
-25.408371 -28.365433 -0.51500845 60.833332
-25.490494 -28.459846 -0.54287052 61.014286
10.471756 -14.5755 1.1444268 60
10.133942 -14.777718 0.98191357 60
9.9445496 -14.770729 1.0907674 61.5
-23.354263 -27.833565 -0.11136818 63
-24.398865 -27.94635 -0.27853394 62.666668
-25.522003 -28.409836 -0.32765627 61.5
10.307343 -14.799225 1.3000193 63
9.9076233 -14.889061 1.3671689 62.666668
10.693726 -14.574402 1.6191278 61
9.8782043 -14.927406 1.5835896 62.916668
9.8978882 -14.912628 1.8202453 62
9.9003601 -14.760918 2.2192793 63
-49.173141 -37.183994 -4.2497315 44
-49.454376 -37.464214 -4.252861 45
-51.01445 -37.956108 -4.3153791 46
-51.553329 -38.291229 -4.3330235 47
-52.82312 -38.801067 -4.5288529 47
-52.869049 -38.83445 -4.4577942 50.200001
-39.571686 -33.638981 -3.6628299 44.25
-39.777649 -33.783676 -3.7039247 43
-41.304459 -34.282684 -3.7374048 42
-41.55687 -34.239262 -3.7507458 42
-42.693405 -34.887878 -3.6990323 45
-43.294601 -34.985954 -3.7205892 42
-47.979874 -36.766357 -3.9743261 45
-52.890732 -38.618881 -4.2434883 54
-52.879456 -38.77055 -4.2341275 52.458332
-2.9889679 -19.570221 -1.9698644 3
-3.245163 -19.586472 -1.9767394 11.166667
-3.5286407 -19.789322 -1.9983492 6.5833335
-3.7705994 -19.803429 -1.9988708 13.833334
-4.0639343 -19.922691 -2.0172043 16.333334
-4.3910065 -20.005173 -2.0290766 13.083333
-4.6719208 -20.110992 -2.0408702 18.1
-4.9280396 -20.179626 -2.0422878 16.703705
-5.1951904 -20.279137 -2.0514741 21.5
-5.4381714 -20.379646 -2.0498023 25
-5.8049011 -20.5401 -2.0639377 30
-6.1694489 -20.594818 -2.0917096 41
-6.5308075 -20.770241 -2.0850434 28
-18.386246 -25.352974 -2.6743975 23.5
-18.736145 -25.508301 -2.6925607 23.5
-18.952927 -25.630013 -2.6974421 23.5
-19.490784 -25.816017 -2.7268987 24.666666
-19.648575 -25.803833 -2.7264581 25.666666
-20.687332 -26.222641 -2.7722769 24
-21.109253 -26.337654 -2.8092875 29
-22.780792 -26.989822 -2.7248306 40.5
-23.047256 -27.256813 -2.8231616 28
-24.059647 -27.526749 -2.915606 30
-24.299744 -27.615639 -2.9152737 30
-24.807907 -27.817429 -2.9245777 30
-25.175217 -27.90152 -2.9391465 29.666666
-25.484344 -28.101219 -2.9543371 30
-25.754517 -28.159584 -2.9577718 30
-25.930145 -28.452065 -2.8937845 34.700001
-26.214478 -28.434746 -2.9560528 31
-26.381653 -28.587128 -2.9040594 32.5
-39.432922 -33.442436 -3.3660641 49.75
-39.52504 -33.581615 -3.4201894 44.983334
-42.722549 -34.911312 -3.5979862 46.222225
-43.308014 -35.026775 -3.5801268 44.260002
-43.469284 -35.019974 -3.6948647 44
-47.737915 -36.685032 -3.5943246 50
-47.878098 -36.904053 -3.6121473 50
-52.903839 -38.622967 -3.9225121 52.666668
-52.919388 -38.74242 -3.9172907 54.5
5.8422546 -15.970718 -1.3984218 40
5.6563873 -16.098251 -1.382133 33.200001
5.4366913 -16.190857 -1.4020047 24.5
5.1651764 -16.33297 -1.4408908 24.699999
4.9402618 -16.447556 -1.4359226 25.361111
4.6297607 -16.554848 -1.4640875 22.572918
4.3151703 -16.660057 -1.491158 26.142859
4.0629425 -16.73806 -1.5091257 21.791666
3.8056946 -16.892807 -1.5683661 27.833332
3.5136566 -17.03611 -1.6451454 32.638889
3.2377777 -17.068108 -1.6587653 30
2.8943176 -17.127602 -1.6664433 32.555553
2.6207275 -17.320549 -1.6674824 29.208334
2.3806305 -17.452202 -1.67489 24.666666
2.0250092 -17.590157 -1.6728354 27.522223
1.7566223 -17.625343 -1.6901531 28.333334
1.4790955 -17.801331 -1.6905556 21.916666
1.2842407 -17.850471 -1.6876063 22.85
0.99671936 -17.919884 -1.6829982 20.833334
0.68965149 -18.098267 -1.7209697 37.333332
0.43977356 -18.189575 -1.7156324 27.583334
0.10169983 -18.313675 -1.7200131 24.975
-0.1566925 -18.418686 -1.7370501 29
-0.38893127 -18.523682 -1.7559557 36.777779
-0.65184021 -18.670609 -1.758502 23.5
-1.0255127 -18.686478 -1.7777452 25.625002
-1.3189697 -18.807808 -1.7895732 14.666667
-1.4949188 -18.908752 -1.8053751 20.416666
-1.7963562 -19.017845 -1.8422861 18.24
-2.0842896 -19.146584 -1.8616204 14.388889
-2.3926849 -19.24128 -1.8852291 16.583334
-2.7101746 -19.396301 -1.9075279 16.866667
-2.9278564 -19.456062 -1.8899636 12
-3.2721252 -19.569221 -1.953445 14.058333
-3.5065002 -19.726791 -1.9728389 13.223333
-4.6603851 -20.268661 -2.0158367 9.916667
-4.9540405 -20.335091 -2.0217161 12.5
-5.2590027 -20.489098 -2.0305052 18.083332
-5.4746399 -20.505119 -2.03227 21.30625
-5.7702637 -20.635963 -2.0393615 22.133335
-6.0108795 -20.718475 -2.0326643 22
-6.3270569 -20.708626 -2.048192 22.875
-6.5817719 -20.860603 -2.0457878 24.6875
-6.8543701 -21.031189 -2.0438142 25.222221
-7.1587219 -21.057518 -2.0738173 25.799999
-7.4306488 -21.225792 -2.0245485 29.365385
-7.9922638 -21.426254 -1.9019527 28
-8.6733551 -21.566032 -1.9208474 24
-8.7800751 -21.767731 -1.9530692 21.5
-9.1794434 -21.993568 -1.9830027 21
-9.5592957 -22.012444 -2.0125275 23.333334
-9.9792786 -22.217255 -2.058105 24
-10.223969 -22.205887 -2.0233231 29
-10.511505 -22.416557 -2.0881648 25.333334
-10.691345 -22.50322 -2.0462284 22.25
-11.392654 -22.716537 -2.1161232 24
-11.530975 -22.776924 -2.1353397 25
-11.874619 -22.905014 -2.1529598 23.5
-12.225983 -23.045761 -2.183219 29.5
-12.432526 -23.145638 -2.1868916 27.5
-12.737625 -23.276901 -2.1865172 24.5
-13.168991 -23.307289 -2.2062426 23
-13.241287 -23.391457 -2.1940002 25.5
-13.561493 -23.42337 -2.218462 22.5
-13.938095 -23.625175 -2.2432156 29.5
-14.085495 -23.692619 -2.2624054 25
-18.112625 -25.18692 -2.3481565 48.5
-21.72821 -26.860703 -2.4203844 45
-21.890976 -26.874504 -2.4345226 46.5
-22.291153 -26.923622 -2.3798242 43.166668
-22.598694 -27.017212 -2.5510311 42.299999
-22.852554 -27.014122 -2.4370923 46.5
-24.118454 -27.551605 -2.4744964 48.5
-24.978287 -28.113945 -2.5497389 39.935604
-25.314499 -28.156113 -2.6908946 35.5
-25.554199 -28.257164 -2.6552806 40.698181
-25.850922 -28.323471 -2.6491795 41.375
-26.511703 -28.535721 -2.6845946 37.53125
-39.438843 -33.528484 -3.2022676 52
-39.489594 -33.648884 -3.2072358 48.470833
-47.77623 -36.71492 -3.5218086 51
-48.05864 -36.963936 -3.3718076 52
-52.897934 -38.67971 -3.6101766 55.666664
-52.919281 -38.732922 -3.5938601 56.416668
6.4078064 -15.766136 -1.2124438 30
5.8692017 -16.047829 -1.1734991 35.25
5.6643677 -16.121971 -1.2086334 34.145836
5.562027 -16.274292 -1.1373415 26.125
-7.4351349 -21.214676 -1.6328487 34.249996
-8.0941467 -21.374474 -1.6355543 27
-21.746262 -26.872658 -2.2295022 46.5
-21.888199 -26.861526 -2.2438474 44.224998
-22.305023 -26.929878 -2.253386 44.666668
-22.714218 -26.966667 -2.3519535 45
-22.923523 -27.099503 -2.2172766 47.466667
-23.013367 -27.236092 -2.1516404 50.619049
-23.523712 -27.360809 -2.1234765 43
-24.078537 -27.546432 -2.2807779 45.533333
-24.127151 -27.572441 -2.3319869 47.333336
-24.923477 -28.105614 -2.3046079 43.833332
-25.282578 -28.204597 -2.2268753 44.909523
-25.599289 -28.267746 -2.2816119 47.4375
-25.919739 -28.336014 -2.3890457 43.231861
-26.265579 -28.399399 -2.2767572 46.649998
-26.529068 -28.458412 -2.3238683 44.849998
-26.724533 -28.496078 -2.5101237 42
-39.581589 -33.6031 -2.8417516 53.416664
-47.81926 -36.772968 -3.1616468 54.25
-47.998322 -36.860207 -3.1618233 54.333332
-52.92807 -38.631161 -3.2832484 59
-52.921082 -38.810421 -3.3337502 58.055557
6.0371857 -16.153946 -1.0229983 30
5.6234589 -16.119926 -0.89854527 35.566666
5.5880585 -16.317345 -0.89146614 36.5
-7.3877869 -21.250374 -1.3619742 37.81818
-21.801254 -26.827721 -1.9921608 51
-22.29805 -26.957962 -2.0019217 50
-22.689209 -26.959709 -1.9980278 52
-22.940857 -27.19738 -1.8745084 53
-23.028061 -27.264679 -1.9578686 52.1875
-24.859192 -28.073074 -1.9963202 50.75
-25.069138 -28.166451 -1.993856 52.666668
-25.350754 -28.173553 -2.0327692 49.099209
-25.615921 -28.25193 -2.0214052 50.989742
-25.987946 -28.307793 -2.0602527 48.888889
-26.244537 -28.394341 -2.0990095 48.839287
-26.525467 -28.443909 -2.0001841 50.666668
-39.504852 -33.650448 -2.533567 55.666664
-47.814514 -36.745583 -2.7956285 57.5
-47.974838 -36.83577 -2.875412 57
-48.130402 -36.972763 -2.868855 57
-52.95752 -38.7752 -2.9914255 60.416668
9.6080475 -14.544998 -0.35066366 53.5
7.0817413 -15.685455 -0.41177225 51.166668
6.7343597 -15.636177 -0.55828714 47.57143
6.5287781 -15.751968 -0.46200991 50
5.6547546 -16.13649 -0.58062363 40.936363
5.5222931 -16.25592 -0.64923191 37.766666
-7.4707184 -21.241158 -1.1158118 41.648075
-7.8825989 -21.239204 -0.97097397 45.5
-25.083389 -28.121803 -1.724853 54.722221
-25.394531 -28.222229 -1.7062125 55.020882
-25.622971 -28.267159 -1.7652459 54.296295
-25.945847 -28.333618 -1.7592988 54.920002
-26.296021 -28.385147 -1.7819462 54.735714
-26.45401 -28.443611 -1.7639337 55.450397
-39.623993 -33.656475 -2.1969581 58.03968
-47.971008 -36.75317 -2.579092 59.75
-52.952515 -38.79567 -2.7237144 61.866669
9.9188232 -14.419266 -0.0068507195 55
9.6023712 -14.598648 -0.11214542 55.305557
7.0945282 -15.651009 -0.24337292 53.0942
6.5486603 -15.792473 -0.38471174 51
6.1690979 -15.897301 -0.28646755 46.299999
5.730011 -16.16478 -0.38362026 43.5
-7.9028473 -21.248604 -0.91104937 46.5
-24.680817 -28.036888 -1.2694783 59
-25.025375 -28.129349 -1.4692411 58.166668
-25.354401 -28.19561 -1.4473009 57.83889
-25.632034 -28.272835 -1.4108086 59.516663
-26.064774 -28.35997 -1.4416122 61.25
-26.211807 -28.364708 -1.5340385 59.625
-26.506363 -28.451645 -1.467876 61.5
-39.409637 -33.519722 -1.8752403 59
-39.600372 -33.725979 -1.9691243 60.25
-52.951523 -38.786514 -2.4863787 62.595238
9.8834381 -14.594009 0.13643312 54.375
9.5931549 -14.668533 0.18986845 58.658974
7.1092987 -15.66729 0.026844501 57.793983
-7.9004364 -21.522545 -0.45240068 56.411903
-8.432724 -21.472969 -0.41978455 56
-8.9447327 -21.790657 -0.43916798 59
-24.344604 -27.878868 -1.1104736 58
-24.499222 -27.885826 -1.1300335 58
-25.166122 -28.167801 -1.2516956 59.5
-25.355728 -28.200485 -1.1155796 59.642857
-25.522629 -28.280777 -1.1645069 58.555557
-26.12677 -28.467781 -1.0782719 60.75
-27.087646 -28.745331 -1.1561432 60.166668
-52.989716 -38.72784 -2.1760077 62.5
10.416397 -14.480316 0.58606768 58
10.067963 -14.427452 0.47974205 59.150002
9.9673004 -14.559326 0.55342484 57.125
5.5467377 -16.088501 0.42998648 58.625
-7.8770905 -21.361198 -0.14232969 59
-8.6392822 -21.827934 -0.16776848 57.5
-8.7936554 -21.863228 -0.24891281 58.5
-9.1729736 -21.999947 -0.30812311 61.666668
-9.3232727 -22.025116 -0.29720402 61.284721
-24.435715 -27.896461 -0.83661652 61
-25.460449 -28.274757 -0.90492487 61
-25.509705 -28.287979 -0.85027361 59
-26.127075 -28.490128 -0.91641092 62
-27.100235 -28.693283 -0.961555 60.875
10.511612 -14.422325 0.78862047 59
10.059601 -14.450218 0.74018574 59.831116
9.9623718 -14.58622 0.76786709 59
5.5545044 -16.129875 0.49781227 60.222225
-8.6566315 -21.790588 -0.0098180771 59.5
-8.7712402 -21.887192 -0.067084789 60
-24.471268 -27.908142 -0.50147867 62
-25.426147 -28.272713 -0.5495472 61.5
-26.148697 -28.499748 -0.63939428 62.5
-27.136047 -28.755188 -0.68692207 62.5
10.427795 -14.417328 1.1518984 60
10.024078 -14.415314 1.1122508 61
9.9457855 -14.587418 1.1223645 61.5625
-24.441391 -27.870155 -0.22826242 63
-25.512558 -28.298401 -0.25821018 62
-27.208755 -28.746277 -0.4191227 62
10.005783 -14.396767 1.3850641 60
9.9055481 -14.584534 1.3679724 62.06818
10.672134 -14.259331 1.6290169 61
9.9692841 -14.457291 1.6907439 58
9.8808289 -14.557518 1.5924969 61.900002
10.685394 -14.268745 1.9054937 62
9.876709 -14.660782 1.828537 62
8.9268494 -14.840965 1.9699907 59
-49.474609 -37.069706 -4.2592902 44
-49.808319 -37.344761 -4.2668982 45
-51.279816 -37.823517 -4.3226008 46
-52.897369 -38.420898 -4.4169674 52.166664
-39.636353 -33.345737 -3.6589227 47
-41.720734 -34.210098 -3.7595644 42
-52.945786 -38.391899 -4.2166529 54.083332
-3.9104614 -19.614723 -2.0054121 11.816668
-4.2149658 -19.661766 -2.0245481 15.8125
-4.4794617 -19.740967 -2.0476928 11.335979
-4.771286 -19.816147 -2.0615044 21.666666
-5.0374298 -19.895424 -2.0675387 20.314814
-5.2754211 -20.052345 -2.0708795 19.402777
-5.5987549 -20.193672 -2.0778923 25.754545
-5.8719788 -20.319511 -2.0854177 27
-6.1231689 -20.368874 -2.0768352 25.25
-6.4725647 -20.46698 -2.0868797 25.375
-6.703125 -20.557259 -2.0910106 27
-6.863327 -20.585464 -2.1073546 29
-7.2394867 -20.734825 -2.1139488 22
-7.4239655 -20.880493 -2.1177497 29
-7.778183 -20.868668 -2.1251783 28
-17.623627 -24.839279 -2.4963245 44.333332
-18.080643 -25.120087 -2.5283422 45
-18.451569 -25.101921 -2.5954108 24
-18.748077 -25.148514 -2.6923289 21
-19.065903 -25.294647 -2.6975527 21.4
-19.356491 -25.489258 -2.7116065 21.833332
-19.556915 -25.570145 -2.7245398 23
-19.898315 -25.80986 -2.7280965 26
-20.099396 -25.699005 -2.7431345 23
-20.382538 -25.929138 -2.7493691 24.875
-20.694489 -25.919121 -2.7682257 24.75
-20.987305 -26.164726 -2.80865 28
-23.118683 -27.080612 -2.8340306 27
-24.231293 -27.410049 -2.9302821 29
-24.617142 -27.572647 -2.9075017 29.5
-24.988281 -27.504555 -2.9225612 28.5
-25.423355 -27.800407 -2.9353395 29
-25.711319 -27.920792 -2.9511175 29
-26.016159 -28.024124 -2.9651852 29
-26.279602 -28.203873 -3.0050654 29
-26.590302 -28.25946 -3.013732 29
-26.844223 -28.460686 -2.9598818 31.833334
-27.047256 -28.532066 -2.911005 35.125
-27.276367 -28.57341 -2.8959866 35
-27.598862 -28.721611 -2.9732685 43.166664
-39.403809 -33.202694 -3.3142462 51
-39.576981 -33.401382 -3.452826 48.5
-43.045609 -34.766727 -3.6295028 43.375
-48.131699 -36.511044 -3.6468019 48
-52.9767 -38.396633 -3.8714285 54.680557
-53.024475 -38.376595 -3.9921021 55
5.8108368 -15.714005 -1.3891506 41.25
5.6686096 -15.809494 -1.3796721 33.4375
5.3296661 -15.99501 -1.4050074 25.066666
5.0646973 -16.092285 -1.4543567 29.479166
4.792923 -16.152176 -1.450664 24.483334
4.4951324 -16.277252 -1.4715819 26.723333
4.2279816 -16.381416 -1.5070405 22.6625
3.9043884 -16.492805 -1.555501 22.6
3.7140503 -16.625931 -1.5938883 23.944445
3.4088745 -16.698257 -1.6646681 30.928572
3.0852509 -16.818291 -1.6507387 17.5875
2.8886414 -16.959229 -1.6578526 28.5
2.5825043 -17.026466 -1.673861 28.833332
2.2783508 -17.077927 -1.6742773 36.099998
1.9324493 -17.199921 -1.6825099 25.5
1.7313995 -17.355766 -1.6839886 29.799999
1.4039154 -17.504036 -1.6919737 34.666668
1.1118317 -17.536682 -1.692513 33.214287
0.87286377 -17.650681 -1.6936235 23.833332
0.59844971 -17.844093 -1.7103753 20.277779
0.2713623 -17.974487 -1.7338367 33.666668
0.022567749 -17.955757 -1.7227616 24
-0.33029175 -18.144905 -1.7438645 22.0625
-0.57421875 -18.305557 -1.7591591 20.333334
-0.86740112 -18.319672 -1.7713947 21.5
-1.1218109 -18.441887 -1.7862062 18.708334
-1.3595734 -18.517593 -1.7882795 23.75
-1.6350861 -18.629654 -1.8243275 12.979167
-1.9189148 -18.763931 -1.8434091 12.458333
-2.2361145 -18.836174 -1.8657103 15.913335
-2.4426422 -19.085327 -1.8803844 22.166668
-2.7637177 -19.057182 -1.881835 13.8125
-3.017746 -19.160904 -1.9307265 19.416666
-3.3432159 -19.277527 -1.9521508 13.511111
-3.5184021 -19.504448 -1.965662 18.333334
-5.8207092 -20.394562 -2.0494218 21.333332
-6.2036133 -20.434891 -2.0625486 24.5
-6.4044495 -20.616226 -2.0491514 28
-6.7532501 -20.612495 -2.0726104 24.566668
-6.9290161 -20.771194 -2.0624743 26.666666
