# .PCD v0.7 - Point Cloud Data file format
VERSION 0.7
FIELDS x y z intensity
SIZE 4 4 4 4
TYPE F F F F
COUNT 1 1 1 1
WIDTH 1269
HEIGHT 1
VIEWPOINT 0 0 0 1 0 0 0
POINTS 1269
DATA ascii
38.065063 -78.805649 1.8344653 57.25
37.787567 -78.930748 1.8776824 58.444443
37.448425 -79.074905 1.8306196 58.088886
37.169876 -79.188881 1.8633792 59.039284
37.032257 -79.276573 1.7426944 59
36.690506 -79.488655 1.8150268 58
36.531601 -79.56147 1.9550004 60
36.362564 -79.998558 1.9723837 57.5
35.699585 -80.412605 1.8697119 57
35.299683 -80.630737 1.8654613 57.166664
34.476044 -81.126602 1.7725883 57.444443
34.395309 -81.256851 1.7600315 59
47.67215 -71.831886 2.4180932 60.666668
47.729584 -72.064384 2.4456224 60.583332
37.998917 -78.870171 2.0397627 59.5
37.752365 -79.01812 2.1435549 60.472218
37.509567 -79.106613 2.188252 60.359997
37.259277 -79.208801 2.1560676 61.115383
36.975357 -79.3088 2.1171699 61.125
36.746979 -79.459724 2.142689 59
36.557419 -79.63958 2.1074896 60.772728
36.377686 -80.008194 2.0664182 58
35.709442 -80.31971 2.1025457 57.75
35.586365 -80.466164 1.9889114 57.666668
35.129898 -80.587997 2.1689479 59
34.471924 -81.116241 2.0065858 59
34.333069 -81.231842 2.0650256 60.624996
47.624634 -72.14846 2.5762148 61
38.22316 -78.724228 2.4945741 60
38.04718 -78.774597 2.4373791 60.533337
37.783478 -78.953499 2.4459033 61.541668
37.493317 -79.078575 2.4509749 61.895832
37.185516 -79.214508 2.4987772 62.166668
36.999527 -79.27581 2.4952891 62.75
36.688171 -79.589363 2.3196657 60.333336
36.290741 -80.009354 2.4761136 59
35.978897 -80.166382 2.3357122 59.75
35.737061 -80.271996 2.4098821 59.666668
35.511963 -80.437508 2.3884447 60.25
35.285965 -80.479057 2.4767399 61
34.532516 -81.064362 2.2995477 59
34.358154 -81.310692 2.3703833 62.390472
38.127853 -78.758476 2.7103353 62.666664
37.811295 -78.926132 2.679734 62.75
37.391922 -79.052017 2.6594903 62.791668
37.027252 -79.260208 2.6236863 62.75
36.316879 -80.028191 2.7540698 60.666668
35.994339 -80.15992 2.7231963 60.666672
35.733597 -80.275696 2.7056339 60.900002
35.399765 -80.380592 2.6625681 60.833332
35.312653 -80.444046 2.8509052 62.5
36.26622 -80.024277 3.022783 61.305553
35.911316 -80.101021 3.0466404 61.333332
35.699615 -80.257378 2.9891551 62.071434
35.46788 -80.390038 2.9777367 62.799999
35.202225 -80.479019 2.8865991 63
36.285614 -79.966721 3.418756 62.25
35.951889 -80.102005 3.3198402 62.541664
35.703491 -80.260712 3.1638212 63
36.29747 -79.953987 3.5497541 63
25.947159 -86.801674 -0.76116109 45
25.849091 -86.846916 -0.76496959 45
25.657654 -86.951935 -0.77330256 45
25.306976 -87.167419 -0.79198146 45
25.058746 -87.352478 -0.80841041 45
24.821442 -87.478355 -0.81955099 45
24.480499 -87.653145 -0.83548641 45
34.33667 -81.019096 -0.22322536 50
22.356766 -89.188126 -0.4707551 49.375
34.344437 -80.956459 0.047677755 51
22.45726 -89.109802 -0.32785845 48.016666
22.368561 -89.191948 -0.2294364 50.299999
36.87973 -79.258553 0.44694138 52
36.614273 -79.346184 0.4256165 51.333336
36.355469 -79.422546 0.40697861 51
36.02565 -79.541542 0.40764737 50.583336
34.297897 -80.963181 0.3162415 52.666664
34.322662 -81.032669 0.36531687 53.5
22.502792 -89.134071 0.015548706 48.916668
22.399734 -89.229355 0.00096678734 51.285713
36.61795 -79.38372 0.64576721 54.222221
36.258057 -79.421944 0.62947607 52
36.104889 -79.490738 0.57207203 51
34.44931 -80.643997 0.56577349 50.5
34.288254 -80.826012 0.60124183 53.642853
33.641144 -81.334526 0.65699625 52
22.356827 -89.180077 0.26749229 53.400002
36.872131 -79.199554 0.92931128 51.375
36.625 -79.364288 0.90021396 53.739582
36.324692 -79.429764 0.95233274 54.214287
36.139633 -79.481308 0.9058249 53.25
35.225464 -80.392494 1.0226715 54
34.889465 -80.505768 0.97238803 53.333332
34.503326 -80.663933 0.91565442 52.866669
34.318253 -80.801422 0.94361401 54.708332
33.636719 -81.272827 0.96971393 53
37.044556 -79.124405 1.1674984 53
36.762695 -79.299446 1.3473928 57
36.613968 -79.388527 1.2172284 55.881248
36.272903 -79.486992 1.1897926 55.400002
36.06871 -79.51548 1.1597316 54.5
35.194702 -80.354698 1.1463773 54.333332
34.86937 -80.5028 1.1994486 54.333332
34.566315 -80.673172 1.222522 54.288891
34.305359 -80.826584 1.2100098 55.684528
33.658478 -81.287491 1.2071302 54.5
37.106079 -79.104599 1.4817598 55
36.842896 -79.246155 1.5940163 56.5
36.633011 -79.412498 1.5655513 57.183338
36.342361 -79.565742 1.5323744 55.111111
36.157623 -79.557449 1.4946699 56
35.318451 -80.316864 1.6124499 56
35.098587 -80.346138 1.5804873 55.666668
34.836273 -80.522758 1.5547194 55.5
34.612244 -80.640831 1.5404074 55.952381
34.312439 -80.841118 1.469537 57.215561
34.28801 -81.061813 1.3830104 57.674999
33.601425 -81.390526 1.472604 55.875
47.738037 -71.674988 2.1483202 60
37.087189 -79.093147 1.866396 57.700001
36.876114 -79.217751 1.8460336 57.575001
36.625671 -79.389603 1.8231256 58.633331
36.34726 -79.551033 1.7893078 58.333332
35.26918 -80.195038 1.8566167 57
35.126175 -80.304482 1.8837905 57.166664
34.843414 -80.478355 1.8697433 56.976189
34.585114 -80.632706 1.8591311 57.523811
34.332352 -80.852097 1.7840054 58.351112
33.593933 -81.324493 1.8326898 57.25
47.622009 -71.657936 2.3982186 60.527775
37.10199 -79.119621 2.2324057 58.25
36.830948 -79.285889 2.2321959 60.125
36.630386 -79.40419 2.1603868 60.766666
36.342667 -79.485374 2.0811601 59
36.154755 -79.525307 2.0747039 59
35.495361 -80.117592 2.1044564 58
35.26799 -80.209129 2.1283596 57.799999
34.937653 -80.304016 2.0449154 57.5
34.769287 -80.618294 2.0973997 58.625
34.535995 -80.677628 2.1464884 59.5
34.261856 -80.838814 2.0896845 60.819443
34.165771 -81.065796 2.1585486 59.5
33.569672 -81.328949 2.0634093 58.666668
47.474487 -71.721901 2.5748911 61
37.108368 -79.05909 2.3379161 60.5
36.81398 -79.250847 2.4015665 61.388889
36.602127 -79.400238 2.4761219 62.106056
35.31897 -80.30307 2.3601432 59
35.078308 -80.385323 2.3606865 59.208332
34.822144 -80.562355 2.3924401 60.285713
34.502625 -80.676224 2.3534856 60.5
34.283401 -80.848907 2.376858 61.958336
34.200104 -81.111649 2.417685 60.666664
37.050659 -79.070801 2.6412857 62.5
36.835709 -79.145935 2.6321733 62.5
36.589279 -79.293221 2.6313267 62.611115
35.675461 -80.13166 2.8298306 60
35.448395 -80.259117 2.8295124 61
35.083298 -80.414841 2.7246428 60.861111
34.844803 -80.50016 2.7541246 60.642857
34.583664 -80.618309 2.6917706 61.299999
34.367813 -80.699593 2.7888703 62.333332
33.82753 -81.220131 2.6867499 60.666668
33.640884 -81.306168 2.6075776 61
35.621475 -80.111336 3.0248811 60.888889
35.326569 -80.28257 3.0020647 61.472218
35.0746 -80.36731 3.0173378 61.722221
34.814285 -80.497505 3.0139945 62.222221
34.458603 -80.661728 2.9178162 62.5
34.061722 -81.088486 2.9623685 60.5
33.697266 -81.161987 2.9618976 62
33.674561 -81.313797 3.0315995 62.5
35.626099 -80.128914 3.3721569 62.166668
35.304047 -80.254852 3.2831376 61.875
34.98056 -80.322624 3.3169909 61.666668
34.861664 -80.385895 3.343091 60
34.065506 -81.108131 3.4226239 62.5
33.884735 -81.106987 3.1404796 62.5
35.221207 -80.241119 3.6457541 62
34.950714 -80.315765 3.6405892 62
35.613541 -80.138809 3.7805629 63
35.258057 -80.247826 3.7727208 63
35.072021 -80.301491 3.768358 63
26.50444 -85.754456 -0.70803928 42
26.381042 -85.898407 -0.71529508 42
22.254486 -88.766014 -0.4706707 49.5
22.286407 -88.751862 -0.17920256 50.75
35.500168 -79.659195 0.4308548 50
35.245346 -79.825294 0.45776033 54
29.891861 -83.479584 0.30338717 49
36.002747 -79.489258 0.65376687 52
35.676727 -79.637604 0.57429242 51.952381
35.414703 -79.74572 0.58232069 52.981483
35.121613 -79.814896 0.6271553 52.994873
34.946487 -79.890945 0.61219954 54
34.363068 -80.433975 0.59336019 50.416668
34.177246 -80.568062 0.6328609 53.24242
33.662491 -80.849785 0.67527699 52
22.235565 -88.718773 0.27371144 53.5
36.228226 -79.312752 0.83366656 52.25
35.920761 -79.473503 0.91667557 52.944443
35.634567 -79.616432 0.93742394 53.388885
35.391129 -79.742729 0.92009687 54.479164
35.128357 -79.846466 0.89981079 55.069443
34.897964 -79.929352 0.87622881 56
34.343964 -80.362762 0.97818804 52.5
34.182846 -80.570885 0.90699625 54.578571
33.975311 -80.803055 0.9020164 52.5
33.694916 -80.862045 0.87260914 52.333332
33.558456 -81.069313 0.86581945 52.333332
35.681656 -79.614166 1.2167602 54.9375
35.428726 -79.703346 1.2613873 55.436111
35.144531 -79.823494 1.23614 56.227272
34.940231 -79.900955 1.1559045 55.5
34.463882 -80.431122 1.2008181 53.75
34.175644 -80.569267 1.2197657 55.916664
33.931717 -80.812424 1.2027891 54.125
33.59697 -80.930038 1.2038004 53.944443
33.556366 -81.0755 1.1842999 53.833332
35.628784 -79.66127 1.522222 56.42857
35.391327 -79.729012 1.5401237 57.14706
35.134186 -79.829765 1.5334699 58.15625
34.38974 -80.448135 1.5511587 55.809521
34.218079 -80.589363 1.5152018 56.787876
33.932098 -80.842659 1.527612 55.944447
33.74295 -80.915665 1.5005302 55.777775
33.556534 -81.071632 1.4467711 55.555557
47.714508 -71.344505 2.1945214 61
47.567505 -71.325905 2.1507392 59.166664
35.650711 -79.593277 1.822325 58.34375
35.37291 -79.70742 1.8210187 58.261112
35.128235 -79.827583 1.8778481 59.775002
34.953918 -79.920174 1.6914856 59
34.701248 -80.38662 1.8233085 56.333332
34.376144 -80.422943 1.8485038 57.041668
34.190536 -80.614388 1.8420064 57.922222
33.920135 -80.796646 1.8065274 57.25
33.644272 -80.937637 1.8650665 57.266663
33.554459 -81.104591 1.8320034 57
47.52504 -71.323387 2.418673 60.866661
35.578903 -79.660866 2.0886233 60.666668
35.3638 -79.755745 2.1099162 61.200001
35.13266 -79.845909 2.1238978 61.227272
34.891037 -80.306862 2.0402951 57
34.747498 -80.362961 2.1531012 57.333332
34.419189 -80.446976 2.0595269 57.25
34.142181 -80.588997 2.1047561 59.588886
33.919724 -80.783882 2.0720541 58.39167
33.655777 -80.904472 2.0455887 58.416668
33.509171 -81.065842 2.1203306 59
47.351349 -71.328316 2.5731125 61
36.359894 -79.277428 2.3717997 61
36.108841 -79.395187 2.4346886 61.333332
35.873581 -79.484978 2.3579836 60.875
35.569138 -79.571548 2.4537189 61.666668
35.324036 -79.761421 2.4272497 61.75
35.199799 -79.824791 2.4226217 62.833332
34.677277 -80.363319 2.4097383 58.25
34.392471 -80.473228 2.4179616 59.444443
34.144257 -80.626968 2.4044037 61.076923
33.944168 -80.791962 2.3463345 59.8125
33.615204 -80.944221 2.393702 61
33.463791 -81.137566 2.3263948 60.5
36.193985 -79.374619 2.6021802 61.75
35.956573 -79.489601 2.6112154 61.933331
35.745178 -79.572838 2.5853362 61
35.329285 -79.694107 2.596689 61.799999
34.656403 -80.428284 2.5978782 58.5
34.490295 -80.482803 2.6674256 59.333332
34.219131 -80.665108 2.6847303 60.42857
33.915848 -80.777718 2.7550325 61.233337
33.610138 -80.919441 2.7315772 62.214287
36.093369 -79.44265 2.8965442 62
35.978531 -79.47049 2.9658523 62.666668
35.683395 -79.566574 2.9156404 62.333332
35.437866 -79.629646 2.9503679 62.75
34.69281 -80.388489 3.0010147 60.833336
34.424667 -80.531662 3.0255551 61.166668
34.146561 -80.649666 2.9941859 61.666668
33.893097 -80.73481 3.029377 62.099998
33.664856 -80.963478 2.9900172 62.75
34.661682 -80.426483 3.3183391 61.25
34.380966 -80.50058 3.3323269 60.916668
34.179733 -80.556847 3.3044169 61.5
34.697891 -80.390732 3.5754101 61.75
34.401932 -80.457436 3.5001197 61.5
33.997971 -80.709885 3.4887571 63
34.849564 -80.353592 3.762197 63
34.033905 -80.726692 4.1576338 63
34.186737 -80.607239 4.4533749 63
34.757385 -80.390366 5.363893 62.5
28.611938 -84.127411 -0.68377352 42
28.383698 -84.294273 -0.68323016 42
28.126953 -84.477173 -0.68328905 42
27.810425 -84.646317 -0.70593143 43
27.598251 -84.847534 -0.68459439 42
27.39122 -84.922203 -0.68824553 42
27.168015 -85.091278 -0.68987226 42
26.953186 -85.276779 -0.69293356 42
26.649765 -85.484802 -0.69631863 42.400002
33.77179 -80.416519 -0.2794528 49.777775
29.832504 -83.207283 -0.25748134 46
22.227219 -88.589638 -0.45937729 48.583336
33.782806 -80.413673 -0.046532869 51.275002
29.844238 -83.241776 -0.076461315 47.25
22.20697 -88.559654 -0.24302816 50.25
34.865616 -79.781952 0.33209825 47.75
34.181183 -80.142838 0.41487598 53.25
34.085205 -80.26815 0.34538031 52.166668
33.672256 -80.465813 0.32727218 53
22.234299 -88.566513 0.0011818409 51.359997
34.993973 -79.8283 0.60797501 51
34.825562 -79.884819 0.61621523 51.807693
34.498154 -79.990166 0.63630438 53.027775
34.215515 -80.113174 0.61289525 52.833336
34.116226 -80.36158 0.57580638 52.987179
33.625885 -80.437836 0.47701001 54
22.176102 -88.62886 0.20326734 53
35.084152 -79.750366 0.92263913 52.666668
34.736313 -79.899963 0.93757725 53.82222
34.525711 -79.976997 0.88322854 53.808334
34.228546 -80.138824 0.92404294 54.681164
34.14534 -80.353958 0.88754582 55.392857
35.023483 -79.791824 1.2969782 55.833332
34.765823 -79.900192 1.2807627 55.612125
34.483673 -79.989662 1.2288778 55.651516
34.218781 -80.131104 1.2234528 55.644928
34.092499 -80.288795 1.1654856 56.833332
35.002106 -79.812019 1.5311849 57.444443
34.822388 -79.908157 1.5324492 57.719051
34.460175 -80.017906 1.5049224 58.180561
34.172226 -80.14357 1.5246282 57.412277
34.129196 -80.364326 1.4863107 58
35.02597 -79.774796 1.8431916 58.048149
34.735916 -79.89888 1.8507056 58.825001
34.475388 -80.001839 1.8263121 58.807693
34.193329 -80.159409 1.8079071 58.807247
34.099884 -80.332291 1.8428826 59.481487
47.450058 -71.125244 2.3987703 60.25
35.596664 -79.430588 2.2218449 60
35.321762 -79.641335 2.212323 60
34.767365 -79.9142 2.1339662 60.645451
34.548523 -80.016769 2.0983441 61.25
34.197693 -80.134285 2.1202571 61.047615
34.064362 -80.31385 2.0592592 60.863636
47.300217 -71.056786 2.5733681 61
35.50885 -79.513115 2.3392599 61
35.058884 -79.762772 2.3701577 61.349998
34.766663 -79.928795 2.4169917 62.033337
34.493164 -80.023109 2.4104958 62.055557
34.185867 -80.15287 2.3469083 61.722221
34.076569 -80.350403 2.384855 62.648151
33.588745 -80.800667 2.4032483 60
35.404556 -79.577736 2.5869441 62.666668
35.118332 -79.705856 2.7146728 62.833336
34.69313 -79.888527 2.6546149 62.599998
34.527924 -79.916885 2.6140754 62.166668
34.224457 -80.075981 2.5864673 62
33.736252 -80.71357 2.7233338 61
35.24498 -79.695457 2.8965089 62.333332
34.285049 -80.364525 2.8477156 59
33.989975 -80.564766 3.0009344 61
33.706543 -80.776794 3.0948622 63
34.020737 -80.56205 3.4602237 61
28.404526 -83.714584 -0.67282534 42
28.176666 -83.963211 -0.67484784 42
27.96843 -84.114944 -0.67126465 43
27.726242 -84.37825 -0.67558026 42.666668
27.472458 -84.614731 -0.69315767 43.333332
27.148315 -84.769836 -0.70055032 44
26.961075 -84.858681 -0.70088625 44
26.750687 -85.139885 -0.67926288 44
26.539597 -85.32235 -0.68240881 44
29.617645 -82.875557 -0.33938265 46
29.355042 -83.107857 -0.48472238 45
22.107681 -88.067215 -0.46168041 48
22.130707 -88.317932 -0.49673796 48.333332
34.004639 -79.889183 -0.033305407 51
33.833984 -80.215393 0.015907526 51.5
31.337982 -81.892601 -0.0423522 46.833332
29.644638 -82.914124 -0.20560956 47
22.112183 -88.10997 -0.22233987 49.5
22.117767 -88.226318 -0.22500372 50.25
33.97644 -79.886223 0.29615235 52
33.639938 -80.368225 0.33053398 53
22.127075 -88.24221 0.045963049 51.833332
34.163559 -79.876144 0.48375559 51
33.63298 -80.356239 0.47854757 54
22.079086 -88.189445 0.27492094 53.25
34.403107 -79.899178 0.97421503 53.333336
34.177551 -80.016869 0.85837507 52.666668
34.255997 -79.984596 1.1964905 54
34.049438 -80.146156 1.2466908 58
34.31044 -79.902008 1.4659147 56
34.110733 -80.083557 1.5278225 57.666668
33.997116 -80.155968 1.4429176 58.5
34.36322 -79.907829 1.7666025 57.5
34.0811 -80.088562 1.7190456 58.666668
47.354782 -70.772446 2.3726335 60.125
34.289627 -79.964302 2.2348025 60.5
34.123108 -80.105568 2.06393 60.333332
34.389496 -79.883484 2.4104798 61.75
34.139618 -80.084488 2.4719989 62.416668
34.40477 -79.910095 2.7019773 63
34.169662 -80.054459 2.6623986 62.583332
28.392105 -83.640358 -0.6616714 44
28.170853 -83.834557 -0.66209912 44
26.611313 -84.853058 -0.72490644 44
26.241425 -84.935799 -0.72696853 44
29.569901 -82.853539 -0.46900821 45
21.985596 -87.812698 -0.45931196 48.5
33.969498 -79.742287 -0.028006554 51
22.010956 -87.802124 -0.16969919 50
33.983154 -79.750671 0.29935408 52
22.005768 -87.766479 0.1220541 51.5
30.611099 -81.834755 0.65993333 51
30.53186 -81.913048 0.49276972 51
30.196228 -82.08783 0.37910461 49
30.536285 -81.87397 0.7450366 52
47.263641 -70.459198 2.3997326 60.25
25.93959 -84.972504 -0.72511816 44
25.609894 -85.008621 -0.72410512 44
25.265945 -85.129456 -0.73197031 44
30.296982 -81.887344 -0.34591365 45.5
29.994781 -81.913864 -0.31790757 45.650002
21.894745 -87.630676 -0.47365952 48.5
30.133835 -81.853989 -0.13831449 47
21.924011 -87.627457 -0.31195974 49.833336
21.956528 -87.689667 0.0036957264 51.424999
31.16626 -81.065292 0.5369947 50.625
31.023666 -81.176109 0.59493756 50
30.532547 -81.781006 0.5047121 50
30.378342 -81.892204 0.57935905 50.6875
30.172653 -81.965958 0.63280106 51.333332
29.853745 -82.017136 0.65183496 51
21.937775 -87.748047 0.29225373 53.25
31.198227 -81.059624 0.74660397 52.125
30.547867 -81.774956 0.78337908 52
30.188095 -81.905991 0.72904229 51.599998
29.979187 -81.991768 0.79316068 52.333332
29.771072 -82.101303 0.84493828 52.888889
47.195633 -70.251274 2.2892137 60
28.196335 -82.806602 -0.5621171 44
27.875916 -83.097923 -0.58067966 44
27.728226 -83.277023 -0.59420729 44
24.95929 -85.309799 -0.74740458 44
24.677689 -85.494942 -0.76385641 44
24.274124 -85.709656 -0.78310061 44
23.923386 -85.880409 -0.79930782 44
31.015411 -80.875023 -0.39838123 47
30.914551 -81.078842 -0.30767369 47.75
30.623276 -81.146431 -0.27826548 47.875
30.186768 -81.358215 -0.31423187 45
29.594635 -81.979561 -0.29805923 45.75
29.470001 -81.992828 -0.35936308 45.25
28.407593 -82.602455 -0.54931068 44
21.759644 -87.27951 -0.46174312 48.099998
31.21727 -80.987434 -0.056534767 46.416664
29.530136 -81.989723 -0.010274887 47.5
21.852875 -87.148911 -0.24116778 47.5
21.738495 -87.260864 -0.2357769 49.866665
31.190552 -81.000542 0.38054705 49.5
30.235962 -81.361847 0.29776263 49
30.127167 -81.420532 0.087282896 51.5
29.536285 -82.000473 0.2484901 49
29.479599 -82.014198 0.29964638 49.5
21.85228 -87.151962 0.090584755 49.75
21.739502 -87.23027 0.13674474 51.333332
31.141266 -81.02494 0.54830503 50.833332
30.958908 -81.148994 0.68168616 50.625
30.555481 -81.223663 0.62783098 49.5
30.368759 -81.363335 0.629107 50.333332
29.54277 -82.070015 0.49369621 51
21.858978 -87.161514 0.34560323 50.900002
21.75061 -87.278893 0.38911152 53.5
30.905289 -81.145592 0.90125465 51.933331
30.647491 -81.209579 0.84057689 51.916668
30.3535 -81.305435 0.83906198 51.700001
29.68486 -82.007866 0.80891848 52.25
29.541245 -82.141853 0.79619741 52.5
29.545746 -82.161743 0.98087668 54
31.286102 -80.364845 -0.38909698 47
31.138031 -80.664085 -0.39518905 47
30.406769 -81.08651 -0.37790203 44.5
30.211075 -81.207191 -0.35085726 45.583336
30.122299 -81.312859 -0.37150455 47.5
29.499237 -81.471191 -0.48236442 44
29.21965 -81.798248 -0.50177622 44
29.031052 -82.009041 -0.51407552 44
28.860535 -82.188568 -0.52474928 44
28.592346 -82.437347 -0.53933597 44
21.800461 -86.998856 -0.4920876 45.25
21.727646 -87.147652 -0.48492146 47.875
30.176239 -81.213539 0.0010802746 47.714287
30.127335 -81.321785 -0.1221993 49.5
21.7901 -87.054802 -0.25809193 48.948486
30.191086 -81.197571 0.28573298 49
30.074921 -81.343666 0.22457838 52.5
21.777222 -87.023926 0.083074331 50.966667
21.738434 -87.191742 0.087168932 51.993336
13.881393 -92.47805 -0.11161637 49
30.234375 -81.198326 0.4922061 50.166668
30.066498 -81.339836 0.41770077 53
21.810562 -87.105034 0.34240675 53
21.758133 -87.156853 0.32878184 53.027775
13.992874 -92.499237 0.11000061 50.5
27.04953 -82.990311 -0.67564368 41
26.784119 -83.110832 -0.6759963 41
26.455338 -83.225426 -0.67454982 41
25.580994 -83.927963 -0.67511058 45
31.438248 -79.971008 -0.37953639 47
29.945618 -81.080956 -0.46551371 44
29.741013 -81.253082 -0.47247291 44
21.662842 -86.761696 -0.40806007 49
14.460754 -91.671921 -0.60516906 48
10.875458 -94.189606 -0.82466674 47
21.656967 -86.726631 -0.18734503 50.25
14.458328 -91.658905 -0.41460872 49.5
13.721451 -92.064522 -0.37842989 47
21.677475 -86.697006 0.036575556 51.25
21.684082 -86.792984 0.32543468 53.333332
13.79213 -91.999146 0.068768501 49
14.796646 -91.420082 0.61676574 55.833336
13.96106 -91.923241 0.52628303 55
14.897736 -91.335854 0.80132174 57.190472
14.800873 -91.381744 0.77101779 57
13.921707 -92.038536 0.80658722 55.333332
13.961487 -92.024193 1.0913496 57.5
26.782196 -82.653839 -0.6256659 45
26.266266 -83.314545 -0.67620707 41
26.0186 -83.431992 -0.67897415 41
25.715805 -83.557144 -0.68159795 41
25.448318 -83.698601 -0.68207455 42.5
25.170425 -83.853348 -0.68462396 43.333332
24.808929 -84.132904 -0.69618726 45
24.404999 -84.314842 -0.71530175 45
23.220627 -85.105484 -0.78082776 41
31.551987 -79.549202 -0.36645985 47
23.398819 -85.054634 -0.48699474 44.357143
23.231064 -85.101425 -0.46334791 45
21.571182 -86.499718 -0.46308708 47.888889
13.527374 -91.972961 -0.67380857 49
10.598907 -94.153587 -0.75700736 47.5
24.148911 -84.456825 -0.15646029 45
23.395752 -85.025162 -0.29201317 45.866665
21.578537 -86.287827 -0.19634104 49.5
21.585663 -86.418068 -0.26422286 48.833332
13.632339 -92.008339 -0.42674351 47.388889
10.59108 -94.166718 -0.5450623 49
23.245834 -85.21048 -0.016478539 48.400002
23.009598 -85.388428 0.030790091 49.25
22.774216 -85.464523 0.037591219 49
21.553314 -86.287811 0.14741731 51.333332
21.571609 -86.439552 0.068857908 51.5
13.800552 -91.950706 -0.068654776 48.5
13.649292 -91.947556 -0.12974405 50.299999
21.491547 -86.392838 0.26588058 53
13.620926 -91.881271 0.16349912 51.92857
13.810791 -91.961647 0.51951289 55
13.690735 -91.92408 0.46582603 51.5
13.811798 -91.923569 0.69376254 53.75
13.83046 -91.927589 0.96111202 54
27.691208 -81.680138 -0.61400914 45
27.458191 -81.91629 -0.61489701 45
27.231491 -82.149216 -0.61685371 45
26.985397 -82.405914 -0.61980724 45
25.657654 -83.06649 -0.6415081 43
25.121368 -83.407722 -0.68239188 41
25.031006 -83.666466 -0.68699741 41
24.867462 -83.840385 -0.69582033 42
24.623291 -84.015015 -0.70615935 41.75
24.301086 -84.166786 -0.72122598 42
24.054565 -84.380539 -0.73099542 42.75
23.804642 -84.558235 -0.74122381 43
23.554031 -84.676788 -0.75272274 43
23.301498 -84.814575 -0.76742148 43.400002
23.20163 -84.979805 -0.77710152 41
22.919662 -85.210838 -0.79998493 41
24.043015 -84.484116 -0.46503377 42
23.887924 -84.500397 -0.45894194 42
23.291977 -85.033203 -0.43584347 47.333332
23.102478 -85.068878 -0.4975493 44.712963
22.788757 -85.128517 -0.50994539 44.583332
22.558838 -85.287659 -0.44169712 45.133335
22.175964 -85.446922 -0.42778277 43
22.088531 -85.612778 -0.49925494 46
21.493835 -86.048462 -0.42529988 47.166664
21.466995 -86.191124 -0.45036268 48.333332
13.471695 -91.823593 -0.61789083 45.333332
24.040405 -84.487579 -0.26489758 44
23.858353 -84.533134 -0.25924563 44
23.053619 -85.045303 -0.23957419 46.453125
22.759872 -85.115967 -0.24540973 46.512501
22.535828 -85.381683 -0.17036104 48.900002
22.405624 -85.553268 -0.097737312 48.5
22.114929 -85.639122 -0.24344039 47.5
21.521164 -86.101585 -0.19334936 49.277775
13.44043 -91.830383 -0.36779571 47
23.880432 -84.554794 -0.032317162 46
22.859512 -85.242027 -0.0018727779 47.5
22.59996 -85.428612 0.026307344 48.625
22.360947 -85.516327 0.030500889 48
22.199829 -85.721497 0.012956381 49
21.524933 -86.134552 0.077657938 51
21.540909 -86.235092 0.35060549 53
21.435913 -86.177917 0.27453065 53
27.977005 -81.260002 -0.60444641 45
27.897369 -81.405266 -0.60920525 45
26.44101 -82.17321 -0.61923194 43
26.301346 -82.323227 -0.62159133 43
26.077896 -82.56044 -0.62591743 43
25.730057 -82.759926 -0.63594174 42
25.280228 -83.226967 -0.67265797 41
23.649536 -84.322296 -0.74242377 44
23.382721 -84.432251 -0.75513887 44
23.12207 -84.547714 -0.76893425 44
22.817902 -84.752937 -0.74592829 44.166668
22.401611 -85.234612 -0.43739367 44.833332
22.256287 -85.349213 -0.48479033 43.133335
21.387482 -85.83548 -0.44535685 47.833332
22.757812 -85.033508 -0.2568984 47
22.466843 -85.193848 -0.23793149 46.166664
22.221268 -85.336555 -0.26602292 45.316666
21.371429 -85.735992 -0.28344584 48.466667
21.417542 -85.798096 0.057821035 50.75
27.532303 -81.052597 -0.61888027 41
27.332001 -81.222862 -0.61413956 42
27.115921 -81.452637 -0.61682081 42
26.915146 -81.638588 -0.61740613 42
26.720047 -81.838631 -0.62018871 42
26.563034 -81.9254 -0.62657571 41
26.205582 -82.069916 -0.62561107 41
25.941666 -82.299461 -0.62790489 41
25.695251 -82.506912 -0.63208175 41
25.429092 -82.581245 -0.65058374 40
24.345947 -83.217499 -0.68488955 40
24.136108 -83.40242 -0.70027471 40
23.866684 -83.611427 -0.71747756 40
23.58374 -83.771484 -0.72949409 40
23.386978 -83.894333 -0.73955679 40
23.13562 -84.074707 -0.7559855 40
22.871262 -84.253906 -0.77279449 40
22.636383 -84.390274 -0.78550267 40
21.279129 -85.445045 -0.42758346 47
21.346664 -85.595421 -0.20468569 49
21.335571 -85.636559 0.20093346 51.5
14.283386 -90.199142 -0.23104644 50
21.359329 -85.638229 0.37804079 53
27.68248 -80.71402 -0.60134339 43
27.523956 -80.908722 -0.602947 43
27.407959 -81.074844 -0.60569859 43
26.886307 -81.112373 -0.61194038 41
26.680862 -81.331688 -0.61247587 41
26.517944 -81.558533 -0.61772656 41
26.338974 -81.76973 -0.62119102 41
25.043533 -82.703941 -0.6499455 40
24.831741 -82.806328 -0.65376997 40
24.5616 -83.027534 -0.66974187 40
22.569626 -84.420021 -0.78796172 40
14.027115 -90.118858 -0.6353991 47
14.059448 -90.142555 -0.46270227 48.5
14.295975 -90.156425 0.0029809475 51
14.226288 -90.142525 0.14911938 52.333332
27.254044 -80.573273 -0.60175037 41
27.058441 -80.873451 -0.60761595 41
26.165619 -81.326683 -0.58988309 44
25.978714 -81.513466 -0.59077597 44
24.979675 -82.182716 -0.6374321 43
21.110489 -84.985657 -0.41042614 46.833332
13.301498 -90.40461 -0.6615746 44.25
13.028793 -90.419502 -0.62551928 46
21.130539 -84.994522 -0.22399926 47.766666
13.20108 -90.441917 -0.46356106 47.75
13.005341 -90.396149 -0.47525883 47
21.151016 -85.003677 0.051421404 49.944447
21.049911 -85.073799 0.077243805 51.583336
13.188385 -90.381767 -0.037187815 50.041668
13.008606 -90.49649 -0.13941717 51
21.117233 -84.992104 0.37243938 51.476192
21.051453 -85.090195 0.3220706 52.833332
13.335693 -90.373405 0.22713375 50
13.283447 -90.384247 0.48017669 51
27.046219 -80.324417 -0.5950861 40
26.864914 -80.462219 -0.59030032 41.75
26.603256 -80.775047 -0.59109688 42
26.328339 -80.991936 -0.60751724 41
26.160812 -81.093506 -0.61502194 39.666668
25.839447 -81.169037 -0.61650276 39.5
25.59346 -81.378464 -0.6002152 40.666668
25.386063 -81.616821 -0.60635591 40.799999
25.167831 -81.840645 -0.61810231 42
24.655487 -82.243362 -0.64164901 43
24.305359 -82.415482 -0.65843534 43
24.011093 -82.593956 -0.6775074 43
23.679718 -82.771698 -0.69653487 43
23.379288 -82.911003 -0.71267152 43
23.180267 -83.025032 -0.72565365 43
22.904648 -83.168198 -0.74285984 43
20.962067 -84.50264 -0.43220854 49
21.022263 -84.591866 -0.19172049 50
21.080093 -84.654533 -0.045734406 51
13.111038 -90.278694 0.15029335 50.333332
35.311554 -74.617592 0.96874809 55
13.177444 -90.226852 0.39353442 52
35.396317 -74.533829 1.325449 56
27.639084 -79.761307 -0.58933926 39
27.429047 -79.794388 -0.57857656 41.400002
27.213516 -80.015923 -0.5789907 41.75
27.042603 -80.223351 -0.57316637 44
26.39064 -80.393684 -0.58874011 41
26.216812 -80.625595 -0.59286523 41
26.000244 -80.874184 -0.59549618 41
25.833038 -81.022964 -0.59686184 42
25.511063 -81.261826 -0.63434815 39
25.278763 -81.35125 -0.63341713 39
24.939499 -81.449333 -0.62995005 39
24.597534 -81.576126 -0.63041425 39
24.118347 -81.953514 -0.65729237 39
23.944855 -82.117607 -0.6703248 39
22.554428 -83.32972 -0.76287818 43
22.354248 -83.413902 -0.77378154 43
20.935013 -84.422714 -0.18199754 50
13.771637 -89.246567 -0.32916689 49
20.951508 -84.459282 -0.034738779 51
13.747009 -89.179047 -0.008441925 50.75
13.161194 -89.647293 0.033661604 52
13.733566 -89.171967 0.12539482 52
35.253647 -74.291985 1.0869646 54.555557
13.811707 -89.073463 0.56355524 54.75
13.356781 -89.490288 0.4941051 53.5
35.479019 -74.09433 1.3603883 57
35.350998 -74.277191 1.3162031 55.200001
13.231552 -89.490585 0.70488572 54.5
13.21907 -89.580025 0.82621241 55
26.94725 -79.630699 -0.57838655 40.666668
26.816071 -79.813782 -0.58065391 41
26.620071 -80.089142 -0.58481002 41.333332
24.746811 -81.220177 -0.62440896 42
24.287415 -81.783798 -0.64301133 39
29.096237 -78.175697 -0.2083993 48.5
29.072876 -78.12751 0.007745266 48.25
12.905563 -89.392395 -0.38492346 47.5
29.121689 -78.169968 0.30848551 49.944443
12.983322 -89.407257 -0.079470396 49.714287
29.134827 -78.286201 0.48972368 53
13.537766 -88.953827 0.25163007 53
13.221802 -89.471252 0.097001791 51.5
12.992996 -89.42321 0.20875192 51.60714
38.546249 -71.564796 1.2227507 56
35.398346 -73.980827 1.1108782 53.625
35.300293 -74.102432 1.0976028 54
13.52774 -88.907333 0.43182707 54.333332
13.17897 -89.377113 0.49174404 53.020836
12.984726 -89.385757 0.46832204 53.222221
35.498352 -73.953537 1.2588375 54.125
13.641037 -89.033142 0.72567701 56.333336
13.583832 -89.075584 0.90194964 58
13.134094 -89.388062 0.79213595 54.833332
12.976044 -89.430313 0.78736758 54.5
12.978821 -89.432533 1.0234554 57
27.322388 -79.075233 -0.57330036 42
27.21228 -79.251991 -0.57600856 42
25.862686 -80.00737 -0.58960366 39
25.633728 -80.194504 -0.59003162 39
25.349838 -80.439468 -0.59311628 39
25.06311 -80.622017 -0.59538746 39
24.392014 -81.098984 -0.61428642 42
24.165695 -81.329338 -0.63191485 42
23.946609 -81.518295 -0.64772558 42
23.705368 -81.774872 -0.66773486 42
23.375626 -82.002289 -0.69000363 42
23.11322 -82.189453 -0.70908189 42
22.880447 -82.3601 -0.7274735 42
22.783524 -82.436829 -0.73561096 42
20.761307 -83.7547 -0.39032745 49
29.07045 -77.968704 0.030553579 50
20.791061 -83.798965 -0.20482659 50
13.606659 -88.478844 -0.4164753 47
13.47113 -88.707169 -0.3137269 48.466667
13.33847 -88.758957 -0.2531755 49
12.794861 -89.299286 -0.26522946 48
38.379211 -71.55619 0.45726252 52
38.208649 -71.621391 0.46317959 52
37.575302 -71.859482 0.48863077 53
28.998169 -77.941345 0.29000592 51.75
20.720718 -83.721962 0.14682293 52.25
13.494888 -88.700775 -0.085283041 50.277775
13.33757 -88.788483 -0.15882635 50
12.844574 -89.266914 -0.10878563 51
38.283279 -71.614861 0.81286097 53.333332
37.68187 -71.815048 0.77157927 54.5
20.752594 -83.752007 0.48317337 54
13.441666 -88.686882 0.15230846 51.733337
13.281784 -88.833496 0.15472722 51.916668
13.032196 -89.010506 0.22885299 53
12.86795 -89.289925 0.16196752 51
38.511856 -71.54892 1.0729742 55
38.342361 -71.621071 1.1499548 55.5
37.828674 -71.797668 1.2143273 56
13.508835 -88.57328 0.59315109 55
13.347534 -89.013168 0.48758125 54
13.078049 -89.054085 0.48077583 54
12.842697 -89.293343 0.43792987 53.666668
37.423203 -71.983513 1.3651977 58
13.44873 -88.650429 0.82169509 57.125
13.327072 -88.680115 0.71071529 56
12.85994 -89.339401 0.69343138 53
13.046783 -89.122627 1.009702 55
26.891739 -78.942436 -0.57724237 39
26.682968 -79.189697 -0.58106017 39
26.493835 -79.362938 -0.58042574 39
26.274658 -79.580261 -0.58186316 39
26.075577 -79.780334 -0.58446121 39
25.553574 -79.836533 -0.57119513 42
25.391342 -80.049553 -0.57354212 42
25.139084 -80.355545 -0.58800316 39
24.958038 -80.384895 -0.5774014 40.333332
24.797241 -80.536934 -0.57891107 41
23.729645 -81.41433 -0.64609408 42
23.488892 -81.540077 -0.65961242 42
23.275833 -81.646385 -0.67167926 42
22.955734 -81.826393 -0.69246411 42
22.580887 -82.035088 -0.7177 42
22.213074 -82.204918 -0.73957801 42
22.013565 -82.307655 -0.75349522 42
36.874405 -72.010193 0.026525497 51
20.672745 -83.527367 -0.42164421 47
13.386887 -88.510628 -0.72820997 45.26667
13.244705 -88.566406 -0.7031548 45.5
12.74765 -88.794159 -0.66046309 44
37.587372 -71.823845 0.19484663 52.5
20.666977 -83.407814 -0.24726629 48.5
20.672379 -83.48307 -0.25144315 48.5
13.3302 -88.519821 -0.42410684 47
13.178314 -88.580414 -0.42934895 47
12.749771 -88.82885 -0.43455696 47
12.680176 -88.92244 -0.35807633 46.857143
37.516525 -71.819878 0.46333456 53.25
36.964798 -72.028786 0.4317975 52.5
31.328217 -75.880219 0.27805567 52
20.674515 -83.481453 0.022173643 50
12.765594 -88.823227 -0.054814577 47.5
12.599686 -88.90947 -0.092131138 48.591663
37.465363 -71.834122 0.87459898 53.5
37.44458 -71.872124 0.90582705 56
36.949036 -72.051155 0.77289152 54.5
13.32193 -88.56971 0.23929048 52.5
13.233185 -88.609116 0.28552699 53
12.761032 -88.781746 0.18801832 50
12.629517 -88.88752 0.19213438 50.0625
37.553757 -71.845306 1.1920748 56.416664
36.889603 -72.08371 1.0325146 56
13.301285 -88.57547 0.49456763 54.266663
13.239059 -88.61422 0.51769233 54.625
12.788773 -88.936066 0.45984483 54.5
12.636917 -88.911316 0.54960775 52.833332
13.30986 -88.644211 0.83506894 57
13.260483 -88.631996 0.81895518 57
12.753998 -88.830299 0.75633788 54.5
12.58931 -88.860939 0.79399753 54.083332
13.245438 -88.668274 1.0257678 59
12.56636 -88.880493 0.99038339 56.5
27.215012 -78.578438 -0.57558513 39
27.114166 -78.684509 -0.5749855 39
26.092468 -79.125038 -0.56895423 39
25.93454 -79.331268 -0.57064652 39
25.769073 -79.46418 -0.56563401 42
25.57103 -79.600136 -0.55904794 42.333332
25.302536 -79.833916 -0.55908561 41
25.163788 -80.001823 -0.56169009 41
24.649261 -80.190849 -0.55966663 43
24.539185 -80.457832 -0.57374358 43
31.21875 -75.73423 0.067507982 50.5
12.621948 -88.755333 -0.51381445 46
31.185394 -75.663345 0.32062006 52.400002
31.249496 -75.678711 0.69253469 54.444443
12.745483 -88.640289 0.32628489 52.333332
12.466843 -88.826103 0.19054413 51.333332
12.382187 -88.939079 0.28767419 51
31.292404 -75.577324 0.97370696 56.333332
31.272461 -75.672218 0.89750576 55.5
31.025879 -75.978981 0.94539094 51.5
30.77861 -76.187538 0.98741961 52
12.65239 -88.701172 0.43000531 52
12.476334 -88.83876 0.44917893 52.400002
12.360168 -88.948624 0.40716815 52
31.566681 -75.358002 1.3495274 55.625
31.393753 -75.571205 1.2608383 56.916668
31.053711 -75.976486 1.1105514 53
30.852005 -76.119026 1.1028862 53
12.504364 -88.847748 0.73040318 53.625
31.571625 -75.37722 1.4324393 57
31.482239 -75.468887 1.4428978 57.5
26.144226 -78.862915 -0.55518317 40
25.82634 -79.055084 -0.55220318 43.666668
25.725876 -79.324272 -0.55424285 41
25.107559 -79.465294 -0.53715897 43
24.897324 -79.745697 -0.54233027 43
24.727509 -79.994316 -0.54872394 43
24.508652 -80.128754 -0.5757525 44
24.15155 -80.148727 -0.57694745 44
23.846573 -80.329285 -0.59581304 44
23.51532 -80.542267 -0.61888337 44
23.202271 -80.716248 -0.63838267 44
28.782364 -76.955849 -0.17644119 45
20.400879 -82.871201 -0.41745305 46.333332
35.454391 -72.453926 0.081682205 51
35.122345 -72.574745 0.30199528 51
34.974899 -72.622879 0.22685075 50.5
31.249435 -75.364891 0.016027927 51.5
28.81575 -76.93911 0.012391567 46.666668
20.446823 -82.825096 -0.22939801 47.309521
35.507248 -72.471489 0.46770215 52.5
35.079071 -72.563034 0.50083017 52.5
34.892838 -72.639336 0.49440122 52.5
31.2061 -75.368408 0.41009688 53
31.158966 -75.511688 0.28021765 51.5
27.488434 -77.783646 0.33224249 48
20.458832 -82.855354 0.12019467 49.505836
35.507828 -72.493019 0.79112792 54.5
35.113968 -72.589523 0.84382963 54
34.83667 -72.676857 0.79926872 54.5
31.252167 -75.393082 0.66507554 54.75
31.188522 -75.507347 0.67363453 55.5
20.433762 -82.844215 0.42155313 52.03788
35.375168 -72.522949 1.0377946 56
35.100403 -72.582436 0.99666786 55
31.434906 -75.213814 0.979074 54
31.304062 -75.351303 0.9239881 54.444443
31.502533 -75.229935 1.2217574 54.5
31.366943 -75.356575 1.2436802 56.60833
26.56192 -78.043251 -0.53742623 41
26.361923 -78.347084 -0.53939629 41
26.180176 -78.445389 -0.53105783 40.833332
25.911407 -78.637573 -0.53547883 42.666668
25.68187 -78.800308 -0.53845596 44
25.556656 -78.897781 -0.53275561 43
25.307724 -79.243752 -0.53715873 43
25.147888 -79.350456 -0.56349301 38
24.786072 -79.559853 -0.56737065 38
24.431885 -79.694122 -0.5648191 38
24.147263 -79.813057 -0.56521726 38
23.880798 -79.973518 -0.57246685 38
22.928177 -80.863617 -0.65581942 44
22.85704 -80.907745 -0.66043711 44
28.667648 -76.800163 -0.25152993 47.583336
28.261292 -76.869698 -0.25797439 40.599998
28.128189 -77.064217 -0.25471616 44.455559
27.589767 -77.645409 -0.30317259 42.5
34.784149 -72.680336 0.10752773 51
34.697113 -72.726173 0.11991644 52
34.263626 -72.826218 0.17897964 50
34.018845 -72.899284 0.08135128 51
28.734894 -76.743103 -0.018083096 49
28.107071 -77.083168 -0.017488003 46.903511
28.039261 -77.246796 0.091667891 50
27.578018 -77.668549 -0.10175347 44.5
20.381241 -82.409019 -0.16025567 49.5
20.373535 -82.513489 -0.19062209 48.5
34.632019 -72.718399 0.48737383 53.5
34.304337 -72.814255 0.49439812 52.25
34.10585 -72.896461 0.43727326 52
28.600739 -76.647263 0.40952754 52
28.230621 -76.886742 0.32817411 47.5
28.080841 -77.111641 0.26403809 49.032047
27.969452 -77.220467 0.40482688 50.833332
27.603943 -77.6008 0.43473554 49
27.503952 -77.648399 0.33797145 48
20.340179 -82.391602 0.11230826 51
20.393478 -82.639015 0.066942453 50
34.580368 -72.752739 0.79020524 55.5
34.301163 -72.832375 0.85776377 54
34.011475 -72.95887 0.80360198 54.833332
28.615051 -76.703865 0.53540754 53.333336
28.019653 -77.133842 0.51582074 51.5
20.328613 -82.409538 0.46740699 53.5
34.433716 -72.803604 1.003489 55
26.738464 -77.805527 -0.53891325 41
26.555847 -77.840729 -0.53518009 43
26.205078 -78.036346 -0.52653241 44
25.948898 -78.244507 -0.52908778 44
25.82193 -78.427452 -0.52198529 43
24.506424 -79.261147 -0.53858447 44
24.202057 -79.328987 -0.55337858 42
33.338943 -73.103584 -0.025491714 49
33.164124 -73.134697 -0.021843672 48.166664
32.354904 -73.871887 -0.065666676 47
28.299133 -76.788399 -0.36290145 39
28.10257 -76.923553 -0.27506638 45.166668
20.254395 -82.167168 -0.3554883 47.916668
33.783218 -72.994026 0.1597662 52
33.418884 -73.075127 0.21727514 50
33.118561 -73.169701 0.13893247 49.25
32.917175 -73.256676 0.17334938 51.75
32.424911 -73.884262 0.20729327 48
28.589218 -76.528763 0.045084953 49.5
28.198853 -76.871979 -0.010160923 44.25
28.086639 -76.951256 0.011382818 47.299999
20.240311 -82.066048 -0.20325041 48.666668
33.701767 -73.028442 0.46447992 52.5
33.427383 -73.088974 0.42486095 51.5
33.124039 -73.177498 0.43513393 51.5
31.608597 -74.20755 0.49711895 51
28.562622 -76.285034 0.28277802 49.666668
28.574524 -76.521439 0.32098532 51.5
28.192673 -76.865746 0.27552867 45.666664
27.993576 -76.976845 0.38652658 50.5
20.273026 -82.195999 0.077770948 51.166664
33.598663 -73.060623 0.74133515 53.5
33.33165 -73.114807 0.68467593 53.25
28.605667 -76.349014 0.49774814 51
28.54747 -76.471237 0.54403353 53
27.977905 -77.019966 0.52637839 53
20.270721 -82.228241 0.4055891 53.5
20.277328 -82.371254 0.28623867 53
33.613998 -73.025093 1.0114682 55
33.401688 -73.101448 1.0134027 55
32.951279 -73.244621 1.0173721 55
26.515137 -77.432785 -0.52130008 44
26.267151 -77.614578 -0.52345681 44
26.092758 -77.834106 -0.53542256 43.25
24.798294 -78.569649 -0.52302408 44
24.667252 -78.823715 -0.52587795 44
24.302582 -79.068069 -0.53988481 42
33.149933 -72.881874 -0.065163374 47
32.785477 -73.272797 -0.043596506 47
32.273819 -73.4533 -0.044101954 50
28.48082 -76.049934 -0.13696504 48.5
32.729065 -73.294777 0.1682725 48.666668
32.169098 -73.477402 0.14774752 49.555557
31.316483 -74.221237 0.019443512 48
28.525085 -76.135109 0.086935997 49.5
20.175354 -81.887955 -0.18584967 47.375
32.754776 -73.305328 0.44563484 51.375
32.434219 -73.406136 0.41864848 51.333332
32.215836 -73.471634 0.44692874 50.666668
32.006622 -73.540092 0.46187854 50.75
31.505676 -74.196114 0.31626177 50
31.361969 -74.270767 0.37469673 50.25
28.484192 -76.113106 0.3090601 51.333332
20.203857 -81.878273 0.046402693 50.444443
32.77916 -73.293526 0.72136903 53.761902
32.468811 -73.382874 0.75332832 53.75
32.164719 -73.488441 0.72045445 53.5
31.282883 -74.248009 0.80448627 52
28.464752 -76.214417 0.52795315 53
20.151642 -81.842659 0.38248014 53.240002
32.684006 -73.365623 0.90537667 56
32.214157 -73.480644 0.89072943 54
32.032379 -73.549423 0.89329076 54
31.526352 -74.174522 0.8803072 52.5
11.927994 -87.553574 2.1359289 59
26.684341 -77.123566 -0.52510357 45
26.356628 -77.164261 -0.52597451 45
26.279846 -77.414116 -0.52933979 45
25.768631 -77.830856 -0.55654478 40
25.450211 -77.952316 -0.55494404 40
25.060913 -78.042397 -0.53473663 42
24.852997 -78.215935 -0.53003907 42
24.709091 -78.386017 -0.52135968 42
24.469955 -78.614243 -0.52677917 41.333332
24.263367 -78.761543 -0.53993464 40
31.973419 -73.246704 -0.06074667 48
31.953674 -73.529213 -0.064698219 48
31.576202 -73.590828 -0.060102224 46.666668
20.077972 -81.491661 -0.41294217 42.5
20.081192 -81.526405 -0.43179154 44
32.057739 -73.479095 0.22276664 48
31.74263 -73.570618 0.24353385 48
31.607178 -73.639526 0.12607884 49.17857
31.273468 -73.744804 0.1594255 49.233334
28.433105 -75.968628 0.10074401 50
20.078125 -81.49855 -0.1486485 46.25
20.087875 -81.576134 -0.12322712 48.599998
31.896591 -73.558861 0.41641116 50.583332
31.619095 -73.65612 0.43714094 51.400002
31.241043 -73.755463 0.42761183 50.55714
20.127029 -81.532539 0.097105265 49.125
20.131775 -81.709404 0.17099071 51.125
11.886261 -87.132767 0.0119524 50
31.900055 -73.556343 0.73859072 52.375
31.604843 -73.660789 0.70831823 52.583332
31.278687 -73.760643 0.71736932 52.812504
20.125992 -81.453987 0.43474197 50.75
20.110611 -81.639717 0.46424484 52.833332
32.046753 -73.493546 0.87033081 53
31.710388 -73.656425 0.90529609 54.5
11.633087 -87.376114 1.7069409 58
11.622055 -87.471306 1.9476676 59
11.779907 -87.473289 2.4285326 60.5
11.639862 -87.491898 2.3778453 60.333332
11.888016 -87.314621 2.5848246 61
26.46463 -76.776237 -0.51264334 39.666668
26.136108 -76.941101 -0.50610137 37
25.908661 -77.08799 -0.50443649 37
25.626953 -77.269249 -0.50335741 37
25.389374 -77.410965 -0.50240183 37
25.222549 -77.588692 -0.51003313 42.666668
25.021301 -77.823975 -0.51692581 41.333332
24.800842 -77.961967 -0.52372932 39
24.568008 -78.243088 -0.53919029 40
24.265579 -78.337265 -0.54553056 39
23.901749 -78.521965 -0.53824854 37
23.766144 -78.580162 -0.53767896 37
23.493912 -78.785126 -0.54952955 37
23.317902 -78.921837 -0.5584209 37
31.987869 -72.932137 -0.055465221 48
30.778946 -73.740433 -0.09581852 46.125
30.582764 -73.86982 -0.11813474 46
28.288162 -75.391403 -0.14972496 46.166664
20.011978 -81.283897 -0.36927819 44
31.105865 -73.765747 -0.031714439 46
30.707016 -73.855156 0.14050865 48.706348
30.414734 -73.946266 0.094003439 47.25
28.342514 -75.467712 0.055681229 46.599998
28.403198 -75.641098 0.06094408 44
20.015884 -81.278267 -0.18549061 46.348484
19.99408 -81.443726 -0.1916647 46
11.426605 -87.311371 -0.22166562 51
30.833588 -73.788956 0.40799689 49.333332
30.737747 -73.850204 0.40842986 50.083336
30.395813 -73.956932 0.43659759 50.611115
28.357086 -75.510284 0.26108527 46.75
20.026657 -81.229912 0.082261801 48.708332
11.853317 -87.079445 0.037320137 50.5
11.194824 -87.263168 0.0073070526 48
30.822433 -73.821724 0.64321208 50.25
30.696472 -73.894493 0.69207764 52.083332
30.367126 -73.984138 0.70214391 51.541668
20.025299 -81.277435 0.31883955 51.125
11.758621 -87.066063 0.20245337 52
11.38858 -87.322563 0.27941394 52.5
11.152893 -87.329811 0.24687219 49
31.182571 -73.721581 0.88978028 52
30.347656 -73.984383 0.84407926 49.5
11.849854 -87.073174 0.53924394 54.5
11.464676 -87.183868 0.53647208 54
34.750854 -71.029953 1.3363812 58
34.695877 -71.085838 1.541208 59
11.862457 -87.070068 0.86713886 57
11.355133 -87.342438 0.74211979 54.75
11.372803 -87.17218 1.1409819 55.833332
11.376312 -87.212936 1.4346533 57
11.633759 -87.233925 1.7321308 58
11.510605 -87.160355 1.7291052 58
11.51149 -87.22686 1.9885495 59
11.377243 -87.273849 2.3658032 60.333332
11.645462 -87.128166 2.7364445 60.5
11.450912 -87.259277 2.6176443 61.166668
11.624557 -87.157555 2.877562 62.166668
25.695312 -76.909637 -0.54475498 39
25.558075 -76.941559 -0.52291989 41
25.332581 -77.215332 -0.5144906 41.799999
25.14267 -77.480515 -0.51118803 39
24.725372 -77.534668 -0.5068469 44
24.658508 -77.749695 -0.51091814 44
23.108353 -78.866066 -0.5802362 41
22.827576 -78.979599 -0.59268832 41
22.568222 -79.096771 -0.60578728 41
22.260147 -79.247887 -0.62397504 41
21.875412 -79.454483 -0.65084147 41
11.752106 -86.759338 -0.81518793 43
11.125992 -87.131882 -0.81564069 42
30.709244 -73.534409 -0.10870433 46.5
30.593124 -73.604538 -0.11426258 46
29.642365 -74.196243 -0.10399294 45.5
28.00032 -75.292488 -0.27057338 45
11.674759 -86.608231 -0.59000993 44.5
11.107071 -87.138756 -0.65930176 43.5
30.274841 -73.949875 0.049225807 50
30.125366 -74.02037 0.0054383278 45
29.777512 -74.130249 0.070922613 46.642857
29.469208 -74.212669 0.15862346 48.25
28.252457 -75.173187 0.047242403 45.333332
19.909134 -80.946541 -0.10896516 47.700001
11.684814 -86.617317 -0.40421367 46.25
11.138779 -87.044617 -0.26678491 51
11.0858 -87.171227 -0.33569193 47.25
30.247696 -73.972984 0.39151406 48.611111
29.994995 -74.056564 0.38840795 49.633335
29.761475 -74.117409 0.34689045 49.142857
29.475876 -74.229828 0.3966701 48.270832
28.22229 -75.162842 0.32382941 47.200001
19.945389 -80.975555 0.21515489 49.916668
11.19516 -87.057899 -0.10693288 50.75
11.13855 -87.133163 -0.03173542 48.5
30.226349 -74.006111 0.71621776 49.5
29.975708 -74.119537 0.70355988 51.400002
29.689972 -74.164307 0.62014794 50.133335
29.474487 -74.261971 0.65442395 50.5
29.271805 -74.33709 0.82015848 51.5
28.24408 -75.177658 0.54605651 48.666664
19.919678 -81.057907 0.39549708 52
11.219406 -87.031624 0.27594328 52.099998
11.091827 -87.170319 0.21443844 51.533333
34.650711 -70.803062 1.0694442 56
34.508347 -70.862648 1.1200109 56.5
29.504013 -74.228851 0.92552543 53
11.41008 -86.877235 0.40304732 53.333332
11.160614 -87.020584 0.57788277 53.5
11.09314 -87.154556 0.51368546 53.666668
34.607895 -70.863091 1.4386253 57.904758
34.549652 -70.961449 1.5075464 57.75
11.200027 -86.993942 0.76309133 54.833332
11.090088 -87.096573 0.82264638 54.875
34.554169 -70.824036 1.6973822 59
34.517975 -70.942123 1.6936278 59
11.391586 -86.866165 1.0997014 55.5
11.170547 -87.020027 1.1264462 57.125
11.042603 -87.075233 1.111649 55.833332
34.637726 -70.741516 1.9797201 60.25
11.649734 -86.602478 1.4049101 61.5
11.423203 -86.884758 1.4721818 57
11.155975 -87.024956 1.4072058 58.333336
11.081192 -87.127785 1.4594231 58.200001
34.704941 -70.707962 2.3335729 62
11.425735 -86.92865 1.7100677 58
11.159637 -87.064751 1.7254059 59.875
11.399918 -86.933105 1.9565516 59
11.12352 -87.059883 2.0444531 61.125
11.336639 -86.889214 2.3643911 60
11.212128 -87.015747 2.3744187 61
11.432022 -86.895798 2.5980871 59.75
11.234665 -86.989365 2.7786839 62.5
11.496185 -86.935333 2.9680305 61.25
11.226379 -87.098198 2.8727129 63
11.631149 -86.676941 3.3171468 61
11.432037 -86.841339 3.2503617 63
11.481857 -86.81646 3.4128859 63
25.78772 -76.490372 -0.49582076 42
25.599457 -76.554993 -0.49974728 42
25.489883 -76.825302 -0.50328279 42
24.887802 -77.197525 -0.51551104 40
24.724884 -77.253456 -0.52107787 38
24.407333 -77.426704 -0.54199457 39
23.836212 -77.753311 -0.51895523 41
21.538162 -79.623367 -0.6737926 41
11.049545 -86.836731 -0.87214017 41
29.71376 -73.693245 -0.15415645 45
29.694366 -74.014473 -0.10439014 45.5
28.23053 -74.807274 -0.18793511 49.75
28.099915 -74.85379 -0.19737983 45.883331
27.211823 -75.397171 -0.26576638 40.111111
27.120255 -75.473587 -0.18794465 45.583332
26.795792 -75.894615 -0.2785399 41.5
26.642319 -76.042656 -0.37664604 40.333332
19.762924 -80.704613 -0.3567543 44
11.007355 -86.796837 -0.68703485 42.833332
29.283539 -74.212242 0.012994051 45
29.070572 -74.304726 0.14849448 46.333332
28.867767 -74.426613 0.058126211 46.620003
28.278503 -74.815323 0.050776005 50.5
28.119858 -74.869026 0.070603609 47.32143
27.22757 -75.388809 0.029494286 43.5
27.113297 -75.500679 0.021983862 47.400002
26.818619 -75.966537 0.10918283 45
26.694748 -76.040092 0.031750917 44.17857
19.810135 -80.780853 -0.16404057 46.799999
10.991928 -86.812332 -0.32275939 46.5
29.100067 -74.312202 0.38091707 49.099998
28.78331 -74.337601 0.39046192 51.5
28.222839 -74.778595 0.38729048 48
28.102203 -74.881767 0.34847689 49.35965
27.080399 -75.53907 0.37287688 50.625
26.63327 -76.039047 0.36235452 46.916668
19.726715 -80.636803 0.15161443 49.458332
11.050568 -86.756409 -0.085503817 48.900002
29.357498 -74.252747 0.56361389 49
29.17923 -74.315056 0.6098299 48.166668
